0.5102592707 -0.2710657716 -0.0444346629
0.5442701578 -0.2920012772 -0.0477261208
0.5650557280 -0.3059480488 -0.0497832783
0.5813971758 -0.3176184297 -0.0514290109
0.5976637602 -0.3294064403 -0.0530747361
0.6269242764 -0.3485682607 -0.0559547655
0.6257649064 -0.3506453037 -0.0559547655
0.6245371103 -0.3528274894 -0.0559547655
0.6233017445 -0.3550053835 -0.0559547655
0.6220587492 -0.3571789265 -0.0559547655
0.6251016855 -0.3618772328 -0.0563661940
0.6238346696 -0.3640570641 -0.0563661940
0.6225600839 -0.3662323952 -0.0563661940
0.6212779284 -0.3684033155 -0.0563661940
0.6199881434 -0.3705697358 -0.0563661940
0.6186908484 -0.3727316558 -0.0563661940
0.6216256022 -0.3775074780 -0.0567776263
0.6287649870 -0.3849414885 -0.0576004907
0.6358599663 -0.3924298882 -0.0584233552
0.6429101825 -0.3999724686 -0.0592462160
0.6541180611 -0.4102463722 -0.0604805127
0.6652619839 -0.4206033349 -0.0617148131
0.6721574068 -0.4283362925 -0.0625376776
0.6831813455 -0.4388436675 -0.0637719706
0.6858102083 -0.4439615309 -0.0641834065
0.6801009774 -0.4436024427 -0.0637719706
0.7573159933 -0.4985052347 -0.0715891868
0.7680681944 -0.5093494654 -0.0728234798
0.7622476220 -0.5091014504 -0.0724120438
0.8428151608 -0.5678917766 -0.0806406885
4.1926631927 -2.8727607727 -0.4163692594
4.1908054352 -2.8930490017 -0.4171921015
4.1806812286 -2.9076600075 -0.4171921015
4.1786618233 -2.9279634953 -0.4180150032
4.1643481255 -2.9396536350 -0.4176035523
4.1540613174 -2.9541721344 -0.4176035523
4.1437239647 -2.9686543941 -0.4176035523
4.1333360672 -2.9831006527 -0.4176035523
4.1228981018 -2.9975106716 -0.4176035523
4.1124100685 -3.0118837357 -0.4176035523
4.1018714905 -3.0262205601 -0.4176035523
4.0912828445 -3.0405201912 -0.4176035523
4.0846304893 -3.0577735901 -0.4180150032
4.0739316940 -3.0720131397 -0.4180150032
4.0671491623 -3.0892331600 -0.4184264243
4.0563406944 -3.1034114361 -0.4184264243
4.0494265556 -3.1205976009 -0.4188378453
4.0385088921 -3.1347136497 -0.4188378453
4.0275421143 -3.1487915516 -0.4188378453
4.0204381943 -3.1659181118 -0.4192492664
4.0093622208 -3.1799328327 -0.4192492664
3.9943478107 -3.1907944679 -0.4188378453
3.9831855297 -3.2047178745 -0.4188378453
3.9681067467 -3.2154612541 -0.4184264243
3.9568586349 -3.2292928696 -0.4184264243
3.9455621243 -3.2430851460 -0.4184264243
3.9418876171 -3.2632012367 -0.4192492664
3.9190011024 -3.2673561573 -0.4180150032
1.2429399490 -1.0532701015 -0.1312468350
1.1533823013 -1.0045831203 -0.1230181903
1.1016666889 -0.9728634357 -0.1180810034
1.0797078609 -0.9600768089 -0.1160238460
1.0430532694 -0.9337962270 -0.1123209596
1.0545392036 -0.9508357644 -0.1139666885
1.0365087986 -0.9410552979 -0.1123209596
1.0258886814 -0.9379141927 -0.1114980951
1.0153031349 -0.9347105026 -0.1106752306
1.0083932877 -0.9348465204 -0.1102637947
0.9978662133 -0.9315308928 -0.1094409302
0.9620558023 -0.9041602612 -0.1057380438
0.9264490604 -0.8765513897 -0.1020351574
0.9197906852 -0.8763272166 -0.1016237289
0.9131452441 -0.8760672808 -0.1012122929
0.9100816846 -0.8792493939 -0.1012122929
0.8927805424 -0.8684600592 -0.0995665565
0.8649328947 -0.8470531702 -0.0966865346
0.8301815987 -0.8184328675 -0.0929836482
0.7956409454 -0.7895806432 -0.0892807543
0.7648198605 -0.7640371323 -0.0859893039
0.7343159318 -0.7381603718 -0.0826978460
0.7074762583 -0.7156525850 -0.0798178241
0.6841447949 -0.6966688633 -0.0773492306
0.6644137502 -0.6811181307 -0.0752920657
0.6447998285 -0.6654384136 -0.0732349083
0.6253036857 -0.6496302485 -0.0711777508
0.6059259176 -0.6336942315 -0.0691205859
0.5934844613 -0.6249008775 -0.0678862929
0.5811119080 -0.6160285473 -0.0666520000
0.5721917152 -0.6107360721 -0.0658291280
0.5633156896 -0.6053889394 -0.0650062636
0.5511265397 -0.5963053107 -0.0637719706
0.5423524380 -0.5908378959 -0.0629491061
0.5302915573 -0.5816110969 -0.0617148131
0.5183017850 -0.5723074079 -0.0604805127
0.5063836575 -0.5629273057 -0.0592462160
0.5011228323 -0.5609513521 -0.0588347875
0.4958820343 -0.5589455962 -0.0584233552
0.4906613827 -0.5569100976 -0.0580119230
0.4854609966 -0.5548450351 -0.0576004907
0.4802811146 -0.5527504683 -0.0571890585
0.4783487320 -0.5544235706 -0.0571890585
0.5053336620 -0.5903644562 -0.0608919486
3.3772046566 -4.0220069885 -0.4303579628
3.3695185184 -4.0414323807 -0.4311808050
3.3553910255 -4.0531692505 -0.4311808050
3.3507032394 -4.0764160156 -0.4324151278
3.3403139114 -4.0913677216 -0.4328265190
3.3298628330 -4.1062960625 -0.4332379699
3.3217508793 -4.1256637573 -0.4340608716
3.3104369640 -4.1411285400 -0.4344722629
3.3021492958 -4.1604714394 -0.4352951348
3.2906866074 -4.1758899689 -0.4357065856
3.2822227478 -4.1952066422 -0.4365294278
3.2706115246 -4.2105770111 -0.4369408786
3.2619721889 -4.2298655510 -0.4377637208
3.2502124310 -4.2451858521 -0.4381751418
3.2383854389 -4.2604756355 -0.4385865927
3.2264914513 -4.2757349014 -0.4389980435
3.2175135612 -4.2949533463 -0.4398208857
3.1935932636 -4.2941536903 -0.4385865927
3.1400039196 -4.2841672897 -0.4352951348
3.1425952911 -4.3192958832 -0.4377637208
3.1508066654 -4.3625802994 -0.4410551786
3.1355593204 -4.3735518456 -0.4410551786
2.7467806339 -3.9162030220 -0.3916833103
2.7330937386 -3.9257671833 -0.3916833103
2.7193739414 -3.9352834225 -0.3916833103
2.7112483978 -3.9529771805 -0.3925062120
2.6946337223 -3.9582946301 -0.3920947611
2.6835854053 -3.9718089104 -0.3925062120
2.6697049141 -3.9811520576 -0.3925062120
2.6585481167 -3.9945981503 -0.3929176629
2.6445882320 -4.0038537979 -0.3929176629
2.6347248554 -4.0163116455 -0.3933290541
2.6234033108 -4.0296635628 -0.3937405050
2.6093211174 -4.0387964249 -0.3937405050
2.5978920460 -4.0520782471 -0.3941519260
2.5864019394 -4.0653290749 -0.3945633769
2.5748507977 -4.0785489082 -0.3949747682
2.5632388592 -4.0917377472 -0.3953862190
2.5515663624 -4.1048955917 -0.3957976699
2.5398330688 -4.1180214882 -0.3962090909
2.5280392170 -4.1311149597 -0.3966205120
2.5136034489 -4.1399140358 -0.3966205120
2.5017035007 -4.1529345512 -0.3970319331
2.4897434711 -4.1659221649 -0.3974433839
2.4751863480 -4.1745877266 -0.3974433839
2.4631211758 -4.1875000000 -0.3978548348
2.4509954453 -4.2003788948 -0.3982662261
2.4413015842 -4.2175402641 -0.3990891278
2.4240882397 -4.2217121124 -0.3986776769
2.4142596722 -4.2388134003 -0.3995005488
2.1244888306 -3.7901349068 -0.3554773033
2.1064140797 -3.7888114452 -0.3546544611
2.3518412113 -4.3021779060 -0.4015577137
2.3430569172 -4.3183097839 -0.4023805559
2.3279690742 -4.3264622688 -0.4023805559
2.3198754787 -4.3477587700 -0.4036148489
2.3108992577 -4.3694553375 -0.4048491716
2.2948684692 -4.3778958321 -0.4048491716
2.2841594219 -4.3947272301 -0.4056720138
2.2665271759 -4.3982419968 -0.4052605927
2.5858283043 -5.1470975876 -0.4723240137
2.5767145157 -5.1739425659 -0.4739697278
2.4356040955 -4.9768629074 -0.4542210102
2.5332446098 -5.2230696678 -0.4760269225
2.5171523094 -5.2363734245 -0.4764383435
2.5116920471 -5.2721319199 -0.4789069295
2.4953970909 -5.2853751183 -0.4793183506
2.4832544327 -5.3076000214 -0.4805526435
2.4688961506 -5.3252811432 -0.4813755453
2.4565205574 -5.3474569321 -0.4826098084
2.4419591427 -5.3650741577 -0.4834327102
2.4273054600 -5.3826537132 -0.4842555523
2.4125580788 -5.4001975060 -0.4850784242
2.3977184296 -5.4177026749 -0.4859012663
2.3847825527 -5.4397363663 -0.4871355891
2.3737018108 -5.4663176537 -0.4887813330
2.3605003357 -5.4883084297 -0.4900155962
2.3471736908 -5.5102729797 -0.4912498891
2.3105316162 -5.4770956039 -0.4875470102
2.2684004307 -5.4299306870 -0.4826098084
2.2418301105 -5.4193902016 -0.4809640944
2.2549345493 -5.5056037903 -0.4879584312
2.2721776962 -5.6008167267 -0.4957756698
2.2600255013 -5.6272163391 -0.4974213839
2.2448935509 -5.6493592262 -0.4986556768
2.2306189537 -5.6710777283 -0.4998899698
2.2055706978 -5.6594791412 -0.4982442260
2.0856177807 -5.4066977501 -0.4752040803
2.0232303143 -5.3558411598 -0.4694440067
2.1472201347 -5.7457537651 -0.5031813979
2.1426651478 -5.7952923775 -0.5068843365
2.1292533875 -5.8214612007 -0.5085300207
2.1139929295 -5.8429203033 -0.5097643137
2.0986094475 -5.8643436432 -0.5109986663
2.0814433098 -5.8810310364 -0.5118215084
2.0658276081 -5.9023747444 -0.5130558014
2.0127000809 -5.8153414726 -0.5048271418
1.7076668739 -5.0454554558 -0.4365294278
1.6569447517 -4.9521145821 -0.4278893471
1.6396480799 -4.9578680992 -0.4278893471
1.6269615889 -4.9777755737 -0.4291236401
1.6141555309 -4.9976549149 -0.4303579628
1.5982108116 -5.0080075264 -0.4307693541
1.5822136402 -5.0183095932 -0.4311808050
1.5646864176 -5.0238022804 -0.4311808050
1.5529817343 -5.0482902527 -0.4328265190
1.5396809578 -5.0679888725 -0.4340608716
1.5376774073 -5.1258506775 -0.4385865927
1.5213648081 -5.2034397125 -0.4443466663
1.4627619982 -5.2046899796 -0.4431123435
1.4512188435 -5.2337799072 -0.4451695085
1.4314547777 -5.3063445091 -0.4505181313
1.4346195459 -5.3931951523 -0.4575124681
1.4167276621 -5.3979229927 -0.4575124681
1.3851323128 -5.3495144844 -0.4529867470
1.3639959097 -5.3446574211 -0.4521638453
1.3504463434 -5.3737907410 -0.4542210102
1.3388366699 -5.4075007439 -0.4566895962
1.3256050348 -5.4312791824 -0.4583353102
1.3112773895 -5.4552578926 -0.4599810541
1.2956563234 -5.4743528366 -0.4612153769
1.2799168825 -5.4934043884 -0.4624496400
1.2629519701 -5.5075545311 -0.4632725120
1.2480881214 -5.5313773155 -0.4649182558
1.2352226973 -5.5648941994 -0.4673868418
1.2189648151 -5.5837802887 -0.4686211050
1.2088360786 -5.6318588257 -0.4723240137
1.3330944777 -6.7915830612 -0.5681877136
1.3093796968 -6.7961950302 -0.5681877136
1.2930229902 -6.8399004936 -0.5714791417
1.2944695950 -6.9815793037 -0.5829992890
1.2754170895 -7.0154752731 -0.5854678154
1.1978237629 -6.7205924988 -0.5603705049
1.0548950434 -6.0374107361 -0.5027700067
1.1458600760 -6.6993160248 -0.5579018593
1.1896263361 -7.1063284874 -0.5916393399
1.1592007875 -7.0760107040 -0.5887593031
1.1195844412 -6.9865174294 -0.5809420943
1.0982605219 -7.0100769997 -0.5825878382
1.0767856836 -7.0335731506 -0.5842335820
1.0566253662 -7.0668616295 -0.5867021084
1.0362466574 -7.1000952721 -0.5891707540
1.0149492025 -7.1283383369 -0.5912278891
0.9873350859 -7.1120924950 -0.5895821452
0.9512119889 -7.0315399170 -0.5825878382
0.9102859497 -7.1022696495 -0.5879364610
0.8548653722 -6.8581409454 -0.5673648715
0.8339070082 -6.8757796288 -0.5685991049
0.8157384396 -6.9181008339 -0.5718905926
0.7938346267 -6.9407105446 -0.5735363364
0.7728721499 -6.9731588364 -0.5760049224
0.7516936064 -7.0055437088 -0.5784735084
0.7297870517 -7.0329093933 -0.5805306435
0.7081926465 -7.0651655197 -0.5829992890
0.6863818765 -7.0973558426 -0.5854678154
0.6643540859 -7.1294798851 -0.5879364610
0.6416700482 -7.1565732956 -0.5899935961
0.6192278862 -7.1885590553 -0.5924621820
0.5965711474 -7.2204756737 -0.5949307680
0.5740883350 -7.2572884560 -0.5978108048
0.5509829521 -7.2890629768 -0.6002793908
0.5276636481 -7.3207645416 -0.6027479768
0.5041287541 -7.3523917198 -0.6052166224
0.4803803861 -7.3839430809 -0.6076851487
0.4558129609 -7.4054703712 -0.6093308926
0.4330959022 -7.4617400169 -0.6138566732
0.4099924564 -7.5179405212 -0.6183823943
0.3839972317 -7.5243029594 -0.6187938452
0.2969603539 -6.7302598953 -0.5529646873
0.2726720572 -6.7113389969 -0.5513190031
0.2534389198 -7.5547599792 -0.6208509803
0.2275050133 -7.5705418587 -0.6220853329
0.1362874657 -6.9397745132 -0.5698333979
0.1118321568 -6.9252610207 -0.5685991049
0.0875398889 -6.9156432152 -0.5677762628
0.0632326379 -6.8959755898 -0.5661305189
0.0390872061 -6.8812050819 -0.5648962259
0.0150465714 -6.8663506508 -0.5636619329
-0.0088803545 -6.8464293480 -0.5620162487
-0.0327506065 -6.8413734436 -0.5616047978
-0.0565404482 -6.8312520981 -0.5607819557
-0.0801357031 -6.8110823631 -0.5591362119
-0.0547305010 -3.0787703991 -0.2509735823
-0.0889120176 -3.1427788734 -0.2563221753
-0.1007164046 -3.1673505306 -0.2583793402
-0.1121408269 -3.1769387722 -0.2592022121
-0.1023289636 -2.4492578506 -0.1991331130
-0.1106415763 -2.4439084530 -0.1987216920
-0.1194254458 -2.4484837055 -0.1991331130
-0.1271580756 -2.4331250191 -0.1978988349
-0.1353617758 -2.4276916981 -0.1974873841
-0.1432231665 -2.4172570705 -0.1966645271
-0.1513369828 -2.4117698669 -0.1962531060
-0.1590732783 -2.4012842178 -0.1954302341
-0.1670965105 -2.3957440853 -0.1950187981
-0.1750827432 -2.3901774883 -0.1946073771
-0.1830079854 -2.3895835876 -0.1946073771
-0.1905225962 -2.3839972019 -0.1941959411
-0.1988433301 -2.3833177090 -0.1941959411
-0.2067183703 -2.3776459694 -0.1937845200
-0.2149702907 -2.3719105721 -0.1933730692
-0.2231829762 -2.3661468029 -0.1929616481
-0.2305324823 -2.3604352474 -0.1925502121
-0.2382576466 -2.3546597958 -0.1921387911
-0.2459449768 -2.3488588333 -0.1917273402
-0.2531860173 -2.3430774212 -0.1913159192
-0.2607991099 -2.3372282982 -0.1909044832
-0.2683744729 -2.3313548565 -0.1904930621
-0.2759123147 -2.3254568577 -0.1900816113
-0.2834119797 -2.3195347786 -0.1896701902
-0.2908739448 -2.3135886192 -0.1892587543
-0.2982975543 -2.3076186180 -0.1888473183
-0.3056830466 -2.3016252518 -0.1884358972
-0.3130306304 -2.2956085205 -0.1880244464
-0.3210417926 -2.2945017815 -0.1880244464
-0.3283299804 -2.2884364128 -0.1876130253
-0.3355794549 -2.2823479176 -0.1872015893
-0.3427904546 -2.2762370110 -0.1867901683
-0.3499631584 -2.2701034546 -0.1863787174
-0.3570969403 -2.2639479637 -0.1859672964
-0.3649975955 -2.2626874447 -0.1859672964
-0.3720710576 -2.2564849854 -0.1855558604
-0.3799452782 -2.2551724911 -0.1855558604
-0.3869584501 -2.2489235401 -0.1851444393
-0.3948061764 -2.2475593090 -0.1851444393
-0.4017584026 -2.2412645817 -0.1847330034
-0.4086712301 -2.2349491119 -0.1843215674
-0.4155448377 -2.2286124229 -0.1839101315
-0.4223795533 -2.2222552299 -0.1834987104
-0.4301339984 -2.2207672596 -0.1834987104
-0.4369070232 -2.2143657207 -0.1830872744
-0.4436404109 -2.2079443932 -0.1826758534
-0.4513447583 -2.2063822746 -0.1826758534
-0.4580163360 -2.1999173164 -0.1822644025
-0.4656925797 -2.1983051300 -0.1822644025
-0.4723019004 -2.1917974949 -0.1818529814
-0.4799497128 -2.1901354790 -0.1818529814
-0.4864961505 -2.1835856438 -0.1814415455
-0.4930030704 -2.1770169735 -0.1810301244
-0.4994696975 -2.1704294682 -0.1806186736
-0.5058967471 -2.1638233662 -0.1802072525
-0.5122833848 -2.1571989059 -0.1797958165
-0.5198101997 -2.1553974152 -0.1797958165
-0.5261338949 -2.1487329006 -0.1793843955
-0.5324170589 -2.1420502663 -0.1789729595
-0.5398911238 -2.1401786804 -0.1789729595
-0.5461106896 -2.1334567070 -0.1785615087
-0.5535544157 -2.1315374374 -0.1785615087
-0.5597103834 -2.1247766018 -0.1781500876
-0.5671237111 -2.1228101254 -0.1781500876
-0.5732154846 -2.1160109043 -0.1777386516
-0.5805981755 -2.1139972210 -0.1777386516
-0.5866253376 -2.1071605682 -0.1773272306
-0.5926121473 -2.1003074646 -0.1769157797
-0.5985580087 -2.0934386253 -0.1765043586
-0.6058619618 -2.0913364887 -0.1765043586
-0.6117430329 -2.0844309330 -0.1760929227
-0.6175833344 -2.0775101185 -0.1756815016
-0.6248315573 -2.0753417015 -0.1756815016
-0.6306067109 -2.0683851242 -0.1752700508
-0.6378230453 -2.0661714077 -0.1752700508
-0.6435329318 -2.0591800213 -0.1748586297
-0.6507167816 -2.0569212437 -0.1748586297
-0.6563614011 -2.0498952866 -0.1744471937
-0.6619646549 -2.0428552628 -0.1740357727
-0.6690917015 -2.0405321121 -0.1740357727
-0.6746290922 -2.0334584713 -0.1736243367
-0.6817229986 -2.0310912132 -0.1736243367
-0.6888087988 -2.0286991596 -0.1736243367
-0.6942554712 -2.0215737820 -0.1732129157
-0.7013080120 -2.0191380978 -0.1732129157
-0.7066883445 -2.0119805336 -0.1728014648
-0.7137070894 -2.0095014572 -0.1728014648
-0.7190212607 -2.0023124218 -0.1723900437
-0.7260061502 -1.9997904301 -0.1723900437
-0.7312536240 -1.9925702810 -0.1719786078
-0.7382044196 -1.9900056124 -0.1719786078
-0.7451462150 -1.9874167442 -0.1719786078
-0.7520792484 -1.9848035574 -0.1719786078
-0.7590028048 -1.9821662903 -0.1719786078
-0.7641073465 -1.9748620987 -0.1715671867
-0.7709961534 -1.9721828699 -0.1715671867
-0.7778755426 -1.9694796801 -0.1715671867
-0.7828870416 -1.9621287584 -0.1711557359
-0.7897313237 -1.9593840837 -0.1711557359
-0.7965661883 -1.9566153288 -0.1711557359
-0.8033910990 -1.9538229704 -0.1711557359
-0.8102061749 -1.9510067701 -0.1711557359
-0.8150727153 -1.9435764551 -0.1707443148
-0.8218520284 -1.9407194853 -0.1707443148
-0.8266504407 -1.9332621098 -0.1703328788
-0.8333936930 -1.9303648472 -0.1703328788
-0.8401266932 -1.9274439812 -0.1703328788
-0.8468497992 -1.9244996309 -0.1703328788
-0.8535622954 -1.9215317965 -0.1703328788
-0.8602646589 -1.9185405970 -0.1703328788
-0.8669562340 -1.9155260324 -0.1703328788
-0.8715550900 -1.9079611301 -0.1699214578
-0.8782099485 -1.9049072266 -0.1699214578
-0.8827400208 -1.8973175287 -0.1695100069
-0.8893576860 -1.8942245245 -0.1695100069
-0.8959642649 -1.8911086321 -0.1695100069
-0.9003989697 -1.8834795952 -0.1690985858
-0.9069682360 -1.8803250790 -0.1690985858
-0.9135261774 -1.8771477938 -0.1690985858
-0.9200732112 -1.8739475012 -0.1690985858
-0.9266088009 -1.8707244396 -0.1690985858
-0.9308940768 -1.8630268574 -0.1686871499
-0.9373917580 -1.8597660065 -0.1686871499
-0.9438776970 -1.8564826250 -0.1686871499
-0.9480669498 -1.8487483263 -0.1682757139
-0.9545143843 -1.8454277515 -0.1682757139
-0.9609501958 -1.8420846462 -0.1682757139
-0.9673745632 -1.8387190104 -0.1682757139
-0.9737869501 -1.8353310823 -0.1682757139
-0.9801876545 -1.8319207430 -0.1682757139
-0.9865761995 -1.8284881115 -0.1682757139
-0.9905597568 -1.8206624985 -0.1678642929
-0.9969091415 -1.8171936274 -0.1678642929
-1.0008226633 -1.8093485832 -0.1674528420
-1.0071325302 -1.8058439493 -0.1674528420
-1.0134298801 -1.8023175001 -0.1674528420
-1.0197148323 -1.7987689972 -0.1674528420
-1.0235037804 -1.7908788919 -0.1670414209
-1.0297487974 -1.7872953415 -0.1670414209
-1.0359814167 -1.7836898565 -0.1670414209
-1.0447303057 -1.7843562365 -0.1674528420
-1.0484083891 -1.7764140368 -0.1670414209
-1.0571619272 -1.7770191431 -0.1674528420
-1.0633584261 -1.7733181715 -0.1674528420
-1.0695420504 -1.7695955038 -0.1674528420
-1.0731089115 -1.7616027594 -0.1670414209
-1.0818698406 -1.7620856762 -0.1674528420
-1.0827478170 -1.7498375177 -0.1666299850
-1.0914971828 -1.7502688169 -0.1670414209
-1.6221523285 -2.5762073994 -0.2480935305
-1.8667451143 -2.9403631687 -0.2842995524
-1.8662291765 -2.9170560837 -0.2826538384
-1.8736937046 -2.9063398838 -0.2822423875
-1.8865485191 -2.9039561749 -0.2826538384
-1.8994096518 -2.9015178680 -0.2830652595
-2.0855472088 -3.1608088017 -0.3093969226
-2.1270174980 -3.1751236916 -0.3122769296
-3.6438858509 -5.3917346001 -0.5340388417
-3.6598765850 -5.3748650551 -0.5336273909
-3.6757934093 -5.3579506874 -0.5332159996
-3.6973099709 -5.3491840363 -0.5336273909
-3.7045559883 -5.3198976517 -0.5319816470
-3.7173726559 -5.2987804413 -0.5311588049
-3.7185695171 -5.2613706589 -0.5286902189
-3.7658491135 -5.2889266014 -0.5328045487
-3.7871954441 -5.2797961235 -0.5332159996
-3.8056027889 -5.2665438652 -0.5332159996
-3.8546159267 -5.2183918953 -0.5323930979
-3.8817415237 -5.2168912888 -0.5336273909
-3.9029207230 -5.2072939873 -0.5340388417
-3.2959902287 -4.3356137276 -0.4464038014
-3.2686352730 -4.2687358856 -0.4406437576
-3.3200831413 -4.3046131134 -0.4455809593
-3.3289668560 -4.2851328850 -0.4447580576
-3.3316059113 -4.2578010559 -0.4431123435
-3.3495364189 -4.2500562668 -0.4435237646
-3.3612492085 -4.2344388962 -0.4431123435
-3.3417377472 -4.1799020767 -0.4385865927
-3.3312745094 -4.1371879578 -0.4352951348
-3.3016989231 -4.0713944435 -0.4295350909
-3.3095781803 -4.0521330833 -0.4287122488
-3.3237023354 -4.0405559540 -0.4287122488
-2.9458899498 -3.5317561626 -0.3764603436
-2.9421522617 -3.5023925304 -0.3744031787
-2.9575827122 -3.4959018230 -0.3748146296
-2.9697675705 -3.4855568409 -0.3748146296
-2.9727730751 -3.4633166790 -0.3735803366
-2.9795191288 -3.4443476200 -0.3727574348
-2.9843709469 -3.4269404411 -0.3719345927
-2.9891395569 -3.4095387459 -0.3711117208
-2.9971282482 -3.3958759308 -0.3707003295
-3.0056486130 -3.3816728592 -0.3702888787
-3.0074510574 -3.3600339890 -0.3690545857
-3.0024580956 -3.3310282230 -0.3669974208
-2.9905912876 -3.2947280407 -0.3641173840
-2.9919743538 -3.2732474804 -0.3628830910
-3.0168988705 -3.2774322033 -0.3645288050
-3.0384967327 -3.2778322697 -0.3657630980
-3.0431113243 -3.2599287033 -0.3649402559
-3.0339670181 -3.2275271416 -0.3624716401
-3.0349242687 -3.2060735226 -0.3612373471
-3.0116698742 -3.1594343185 -0.3571230173
-3.0376696587 -3.1413803101 -0.3575344682
-4.5558271408 -4.6747150421 -0.5356845260
-4.5922603607 -4.6809067726 -0.5381531715
-4.5840358734 -4.6400547028 -0.5352731347
-4.6248264313 -4.6487331390 -0.5381531715
-4.6410264969 -4.6325602531 -0.5381531715
-4.6536264420 -4.6128268242 -0.5377417207
-4.2149605751 -4.1208362579 -0.4834327102
-4.2472114563 -4.1234369278 -0.4854898751
-4.4985556602 -4.3366322517 -0.5126443505
-4.4163956642 -4.2279500961 -0.5015357137
-4.2793149948 -4.0684442520 -0.4842555523
-4.3304696083 -4.0869002342 -0.4883698821
-4.8415975571 -4.5033926964 -0.5426788926
-4.8316459656 -4.4628176689 -0.5397989154
-4.8582196236 -4.4560208321 -0.5410331488
-2.8865673542 -2.6321113110 -0.3192712963
-2.8957374096 -2.6220195293 -0.3192712963
-4.8786444664 -4.3816170692 -0.5381531715
-4.9609003067 -4.4242038727 -0.5455589294
-4.9763131142 -4.4068603516 -0.5455589294
-5.0103893280 -4.4059009552 -0.5476160645
-5.0257382393 -4.3883848190 -0.5476160645
-5.0865783691 -4.3484549522 -0.5492618084
-5.1055274010 -4.3338947296 -0.5496732593
-5.1091861725 -4.3064222336 -0.5484389663
-4.7264981270 -3.9562778473 -0.5056500435
-3.5693905354 -2.9473588467 -0.3789289594
-3.6504869461 -2.9504814148 -0.3842775822
-3.6490941048 -2.9283771515 -0.3830432594
-3.6592936516 -2.9156217575 -0.3830432594
-3.6694486141 -2.9028310776 -0.3830432594
-3.6874039173 -2.8961515427 -0.3838661313
-3.7053568363 -2.8893818855 -0.3846889734
-3.7272522449 -2.8855671883 -0.3859232962
-3.7452104092 -2.8786032200 -0.3867461383
-3.7750604153 -2.8806042671 -0.3888033032
-3.7811169624 -2.8644049168 -0.3883918822
-3.7990643978 -2.8571703434 -0.3892147541
-3.8289968967 -2.8587739468 -0.3912719190
-2.3367116451 -1.7088403702 -0.2357505858
-2.3106513023 -1.6769113541 -0.2324591279
-2.3020076752 -1.6462851763 -0.2304019630
-2.2507767677 -1.5979661942 -0.2246419191
-2.2359464169 -1.5757876635 -0.2225847542
-2.1678340435 -1.5167062283 -0.2151789814
-2.1526212692 -1.4949604273 -0.2131218165
-2.1208488941 -1.4620612860 -0.2094189227
-2.0929923058 -1.4322072268 -0.2061274648
-2.1144914627 -1.4360558987 -0.2077731937
-2.1194913387 -1.4286663532 -0.2077731937
-2.1659414768 -1.4488786459 -0.2118875235
-5.8435993195 -3.8100972176 -0.5727134943
-5.8568634987 -3.7896764278 -0.5727134943
-5.8700561523 -3.7692093849 -0.5727134943
-5.8999953270 -3.7593941689 -0.5743591785
-5.9215102196 -3.7440946102 -0.5751820207
-5.9303202629 -3.7207570076 -0.5747705698
-5.3538641930 -3.3078668118 -0.5163472891
-5.3611273766 -3.2865579128 -0.5159358382
-6.0583825111 -3.6552560329 -0.5809420943
-6.0839371681 -3.6417543888 -0.5821763873
-6.0966119766 -3.6204955578 -0.5821763873
-5.9975347519 -3.5335144997 -0.5714791417
-5.4135708809 -2.9885241985 -0.5072957277
-5.3840990067 -2.9490461349 -0.5035928488
-5.3549323082 -2.9088625908 -0.4998899698
-5.3255519867 -2.8689174652 -0.4961870611
-5.3008494377 -2.8306341171 -0.4928956330
-5.2759385109 -2.7925691605 -0.4896041751
-5.2503395081 -2.7556421757 -0.4863127172
-5.2245469093 -2.7189283371 -0.4830212593
-5.1892342567 -2.6787717342 -0.4789069295
-5.1985530853 -2.6606419086 -0.4789069295
-5.1727004051 -2.6235711575 -0.4756154716
-5.1684646606 -2.5987963676 -0.4743811786
-5.1864285469 -2.5851771832 -0.4752040803
-5.1998901367 -2.5692605972 -0.4756154716
-5.2177815437 -2.5554680824 -0.4764383435
-5.2535786629 -2.5502707958 -0.4789069295
-5.2894029617 -2.5448546410 -0.4813755453
-5.3252530098 -2.5392189026 -0.4838441014
-5.3566203117 -2.5312392712 -0.4859012663
-5.3699388504 -2.5146338940 -0.4863127172
-5.3877282143 -2.5000610352 -0.4871355891
-5.4054803848 -2.4853942394 -0.4879584312
-5.4231963158 -2.4706342220 -0.4887813330
-5.4454178810 -2.4578263760 -0.4900155962
-5.4721679688 -2.4469220638 -0.4916613400
-5.4989075661 -2.4358623028 -0.4933070540
-5.5210709572 -2.4226472378 -0.4945413470
-5.5569252968 -2.4152538776 -0.4970099628
-5.5653219223 -2.3958423138 -0.4970099628
-5.6103358269 -2.3920016289 -0.5003014207
-5.6140589714 -2.3704695702 -0.4998899698
-5.5763087273 -2.3316769600 -0.4957756698
-5.4278187752 -2.2475264072 -0.4817869663
-4.5408372879 -1.8626788855 -0.4019691348
-4.5426936150 -1.8449462652 -0.4015577137
-4.5398550034 -1.8253707886 -0.4007348418
-4.5369348526 -1.8058375120 -0.3999119699
-4.5478491783 -1.7918113470 -0.4003233910
-4.5540757179 -1.7759257555 -0.4003233910
-4.5602474213 -1.7600172758 -0.4003233910
-4.5663633347 -1.7440885305 -0.4003233910
-4.5773882866 -1.7290966511 -0.4007348418
-4.5743551254 -1.7088303566 -0.3999119699
-4.5989966393 -1.6997418404 -0.4015577137
-5.2061085701 -1.8821711540 -0.4538095891
-5.2689719200 -1.8840643167 -0.4587467611
-5.3977046013 -1.9087381363 -0.4694440067
-5.4984402657 -1.9226932526 -0.4776726365
-5.5946273804 -1.9343441725 -0.4854898751
-5.6862440109 -1.9437388182 -0.4928956330
-5.7732725143 -1.9509247541 -0.4998899698
-5.8556909561 -1.9559533596 -0.5064728856
-5.9618802071 -1.9682202339 -0.5151129365
-5.7744307518 -1.8841961622 -0.4982442260
-4.2723898888 -1.3790944815 -0.3674088120
-4.2676801682 -1.3611550331 -0.3665859699
-4.2724051476 -1.3462500572 -0.3665859699
-4.2770786285 -1.3313285112 -0.3665859699
-4.2912287712 -1.3193079233 -0.3674088120
-4.2958078384 -1.3043209314 -0.3674088120
-4.3051099777 -1.2907421589 -0.3678202629
-4.3143692017 -1.2771155834 -0.3682317138
-4.3235855103 -1.2634400129 -0.3686431348
-4.3327589035 -1.2497155666 -0.3690545857
-4.3373103142 -1.2338263988 -0.3690545857
-4.3466024399 -1.2192616463 -0.3694660068
-4.3556365967 -1.2054040432 -0.3698774278
-4.3646264076 -1.1914994717 -0.3702888787
-4.3783850670 -1.1788364649 -0.3711117208
-4.3824734688 -1.1635460854 -0.3711117208
-4.3865079880 -1.1482415199 -0.3711117208
-4.4049692154 -1.1366395950 -0.3723460436
-7.3056349754 -1.8000578880 -0.6179709435
-7.3457770348 -1.7827478647 -0.6208509803
-7.3955821991 -1.7674872875 -0.6245538592
-7.4453692436 -1.7519024611 -0.6282567978
-7.4902815819 -1.7348704338 -0.6315482259
-7.5400247574 -1.7186502218 -0.6352511048
-7.5848822594 -1.7010166645 -0.6385425925
-7.6345753670 -1.6841589212 -0.6422454715
-7.6793713570 -1.6659237146 -0.6455368996
-7.7241330147 -1.6473962069 -0.6488283873
-7.7688579559 -1.6285763979 -0.6521198153
-7.8135457039 -1.6094644070 -0.6554113030
-7.8533096313 -1.5890731812 -0.6582913399
-7.8981876373 -1.5680160522 -0.6615827680
-7.9381241798 -1.5456999540 -0.6644628048
-7.9777369499 -1.5245058537 -0.6673428416
-8.0172977448 -1.5030539036 -0.6702228189
-8.0568056107 -1.4813443422 -0.6731028557
-8.0962610245 -1.4593752623 -0.6759829521
-8.1307516098 -1.4362869263 -0.6784514785
-8.1750001907 -1.4146685600 -0.6817429662
-8.2142829895 -1.3919293880 -0.6846229434
-8.2535066605 -1.3689332008 -0.6875029802
-8.2877511978 -1.3448829651 -0.6899716258
-8.3268489838 -1.3213901520 -0.6928516626
-8.3658828735 -1.2976406813 -0.6957316399
-8.4048519135 -1.2736347914 -0.6986116767
-8.4437551498 -1.2493724823 -0.7014916539
-8.4825916290 -1.2248519659 -0.7043716908
-8.5164251328 -1.1993860006 -0.7068403363
-8.5551195145 -1.1743730307 -0.7097203732
-8.5888032913 -1.1484472752 -0.7121888995
-8.6273517609 -1.1229406595 -0.7150689363
-8.6608839035 -1.0965539217 -0.7175375819
-8.6943349838 -1.0699489117 -0.7200061679
-8.7277059555 -1.0431236029 -0.7224746943
-8.7609949112 -1.0160783529 -0.7249432802
-8.7942018509 -0.9888134599 -0.7274119258
-8.8223705292 -0.9607902169 -0.7294690609
-8.8555688858 -0.9315590858 -0.7319376469
-8.8838701248 -0.9000454545 -0.7339948416
-8.9116039276 -0.8729940653 -0.7360519767
-8.9394035339 -0.8442094326 -0.7381091714
-8.9671096802 -0.8152411580 -0.7401663065
-8.9897584915 -0.7856588960 -0.7418119907
-9.0172758102 -0.7563396692 -0.7438691854
-9.0397291183 -0.7264440060 -0.7455148697
-9.0670537949 -0.6967796683 -0.7475721240
-9.0942802429 -0.6669333577 -0.7496292591
-9.1214094162 -0.6369054914 -0.7516864538
-9.1484375000 -0.6066938639 -0.7537435889
-9.1753664017 -0.5763037205 -0.7558007240
-9.2021951675 -0.5457329750 -0.7578579187
-9.2289209366 -0.5149819255 -0.7599150538
-9.2555446625 -0.4840509593 -0.7619722486
-9.2820644379 -0.4529378712 -0.7640293837
-9.3084793091 -0.4216479659 -0.7660865188
-9.3347883224 -0.3901792467 -0.7681437135
-9.3609905243 -0.3585318923 -0.7702008486
-9.3870868683 -0.3267064393 -0.7722580433
-9.4180536270 -0.2948536575 -0.7747266293
-9.4439764023 -0.2610081136 -0.7767837644
-9.4647970200 -0.2268574834 -0.7784295082
-9.4904413223 -0.1943139881 -0.7804866433
-9.5109920502 -0.1615124792 -0.7821323872
-9.5364103317 -0.1286342144 -0.7841895223
-9.5567331314 -0.0955309868 -0.7858353257
-9.5819225311 -0.0623195358 -0.7878924012
-9.6020135880 -0.0289212167 -0.7895380855
-9.6269712448 0.0046218312 -0.7915953398
-9.6518115997 0.0383387506 -0.7936524749
-9.6765336990 0.0722317100 -0.7957096696
-9.7011356354 0.1062951535 -0.7977668047
-9.7256174088 0.1405312270 -0.7998239398
-9.7499799728 0.1749395281 -0.8018811345
-9.7692365646 0.2094100118 -0.8035268188
-9.7883720398 0.2440196723 -0.8051725626
-9.8123645782 0.2789072096 -0.8072296977
-9.8312540054 0.3138034940 -0.8088755012
-9.8500175476 0.3488350213 -0.8105211854
-9.8686571121 0.3840013444 -0.8121669292
-9.8871698380 0.4193046689 -0.8138126135
-9.9055566788 0.4547393024 -0.8154583573
-9.9188404083 0.4900587499 -0.8166927099
-9.9319038391 0.5272116065 -0.8179269433
-9.9448299408 0.5644641519 -0.8191612959
-9.9626941681 0.6003839970 -0.8208069801
-9.9754562378 0.6361156106 -0.8220412731
-9.9880905151 0.6719462872 -0.8232756257
-10.0055646896 0.7082247138 -0.8249213099
-10.0179395676 0.7442615032 -0.8261556029
-10.0301837921 0.7803931832 -0.8273898959
-10.0422983170 0.8166195154 -0.8286241889
-10.0493164062 0.8525186777 -0.8294470906
-10.0611696243 0.8889152408 -0.8306813240
-10.0728912354 0.9254050255 -0.8319156766
-10.0844812393 0.9619874358 -0.8331499696
-10.0909786224 0.9981688857 -0.8339728713
-10.1122169495 1.0359413624 -0.8360300064
-10.1234045029 1.0728162527 -0.8372642994
-7.7588920593 0.8757759333 -0.6414225698
-10.1314115524 1.1810843945 -0.8389099836
-10.1717510223 1.2218168974 -0.8426128626
-10.1773147583 1.2585433722 -0.8434357643
-10.1926307678 1.2965862751 -0.8450814486
-10.2028646469 1.3341028690 -0.8463158011
-10.2129611969 1.3717067242 -0.8475500941
-10.2177362442 1.4104989767 -0.8483729362
-10.2275514603 1.4482603073 -0.8496072292
-10.2322959900 1.4853887558 -0.8504301310
-6.5206937790 0.9690044522 -0.5410331488
-6.2592520714 0.9970417619 -0.5200501084
-6.2311463356 1.0148578882 -0.5179929733
-6.2079071999 1.0333123207 -0.5163472891
-6.1944389343 1.0532962084 -0.5155243874
-6.1759977341 1.0723419189 -0.5142900944
-6.1624050140 1.0921471119 -0.5134672523
-6.1487498283 1.1118690968 -0.5126443505
-6.1350321770 1.1315089464 -0.5118215084
-6.1212525368 1.1510666609 -0.5109986663
-6.1074109077 1.1705418825 -0.5101757646
-6.0935077667 1.1899361610 -0.5093529224
-6.0795440674 1.2092460394 -0.5085300207
-6.0704030991 1.2294664383 -0.5081186295
-6.0563154221 1.2486274242 -0.5072957277
-6.0470442772 1.2687324286 -0.5068843365
-6.0328340530 1.2877449989 -0.5060614944
-6.0185647011 1.3066723347 -0.5052385926
-6.0091018677 1.3265941143 -0.5048271418
-5.9944777489 1.3464177847 -0.5040042996
-5.9846453667 1.3672645092 -0.5035928488
-5.9701304436 1.3858839273 -0.5027700067
-5.9555583000 1.4044203758 -0.5019471645
-5.9360852242 1.4217053652 -0.5007128716
-5.9310860634 1.4424172640 -0.5007128716
-5.9260153770 1.4631115198 -0.5007128716
-5.9208722115 1.4837878942 -0.5007128716
-5.9832510948 1.5217026472 -0.5064728856
-6.1644048691 1.6368759871 -0.5233415961
-6.1394119263 1.6531842947 -0.5216958523
-6.1336030960 1.6746060848 -0.5216958523
-6.1277203560 1.6960058212 -0.5216958523
-6.1121702194 1.7146847248 -0.5208730102
-6.1780261993 1.7565118074 -0.5270444751
-6.1718573570 1.7780660391 -0.5270444751
-6.2637486458 1.8544689417 -0.5360959768
-6.1856589317 1.8547946215 -0.5299245119
-6.0027737617 1.8226541281 -0.5147014856
-6.0582776070 1.8626873493 -0.5200501084
-6.1040616035 1.9001598358 -0.5245758891
-6.1781649590 1.9469847679 -0.5315702558
-8.3925027847 2.6791157722 -0.7241204977
-8.6296195984 2.7882080078 -0.7455148697
-9.1691379547 2.9982783794 -0.7932410240
-9.0771169662 3.0384497643 -0.7870695591
-6.7447695732 2.2824640274 -0.5846449733
-6.7320480347 2.3043758869 -0.5842335820
-9.1513547897 3.2061467171 -0.7973553538
-9.0461874008 3.2047381401 -0.7891267538
-8.9692811966 3.2127346992 -0.7833666205
-9.1079101562 3.2984039783 -0.7965324521
-7.3279247284 2.6816272736 -0.6410111785
-7.3091745377 2.7037255764 -0.6401882768
-8.5875806808 3.2117688656 -0.7537435889
-8.7720413208 3.3158421516 -0.7710236907
-8.7226009369 3.3337161541 -0.7677322626
-8.6592054367 3.3458783627 -0.7632064819
-8.6706771851 3.3851587772 -0.7652636766
-8.6773452759 3.4227283001 -0.7669093609
-5.5799417496 2.2440271378 -0.4933070540
-5.5351552963 2.2484543324 -0.4900155962
-5.5318813324 2.2696573734 -0.4904270470
-5.5147213936 2.2851295471 -0.4896041751
-5.4929265976 2.2985818386 -0.4883698821
-5.4802808762 2.3157989979 -0.4879584312
-5.4675822258 2.3329546452 -0.4875470102
-5.4639801979 2.3540012836 -0.4879584312
-5.4511623383 2.3710677624 -0.4875470102
-5.4428524971 2.3900811672 -0.4875470102
-5.4481372833 2.4151377678 -0.4887813330
-5.8027911186 2.6470491886 -0.5233415961
-8.2002458572 3.8143301010 -0.7434577942
-8.1688432693 3.8344500065 -0.7418119907
-8.1644124985 3.8672146797 -0.7426348925
-8.1508636475 3.8956899643 -0.7426348925
-8.2673416138 3.9869668484 -0.7545664310
-8.4728698730 4.1227607727 -0.7747266293
-8.5076169968 4.1764936447 -0.7792522907
-8.5778045654 4.2482347488 -0.7870695591
-8.4960775375 4.2447061539 -0.7808980942
-8.4723119736 4.2698459625 -0.7800751925
-8.4484739304 4.2948722839 -0.7792522907
-8.4201335907 4.3175077438 -0.7780180573
-8.3917350769 4.3400001526 -0.7767837644
-8.3588685989 4.3600378036 -0.7751380801
-8.3215541840 4.3775758743 -0.7730808258
-8.2886209488 4.3972449303 -0.7714351416
-8.2468671799 4.4120316505 -0.7689666152
-8.2314157486 4.4407930374 -0.7689666152
-8.1896085739 4.4551954269 -0.7664979100
-8.2133150101 4.5053467751 -0.7702008486
-8.2411298752 4.5581316948 -0.7743151784
-8.1721649170 4.5591440201 -0.7693779469
-8.1554002762 4.5890645981 -0.7693779469
-8.1393308640 4.6175060272 -0.7693779469
-8.1015434265 4.6335072517 -0.7673208117
-7.9397974014 4.6147551537 -0.7549778819
-7.9236407280 4.6424417496 -0.7549778819
-7.8559165001 4.6396346092 -0.7500406504
-7.8739151955 4.6874408722 -0.7533321381
-4.9701056480 2.9799718857 -0.4752040803
-4.9340991974 2.9818141460 -0.4727354646
-4.9279141426 3.0016152859 -0.4731468856
-4.9004292488 3.0083553791 -0.4715011716
-4.8941330910 3.0280683041 -0.4719125628
-4.8919854164 3.0504145622 -0.4727354646
-0.9556370974 0.5953453779 -0.0896921977
-0.9535531402 0.5986774564 -0.0896921977
-0.9598534107 0.6073719859 -0.0905150622
-0.9242187142 0.5891238451 -0.0872235969
-0.9178746939 0.5897924900 -0.0868121684
-0.9115381241 0.5904228091 -0.0864007324
-0.9053124785 0.5908565521 -0.0859893039
-0.9032445550 0.5940130353 -0.0859893039
-0.9094451666 0.6027094722 -0.0868121684
-0.8949453235 0.5975165367 -0.0855778679
-0.8928542137 0.6006367803 -0.0855778679
-0.9113051295 0.6178331971 -0.0876350254
-2.0646741390 1.4294056892 -0.2040703148
-2.0596721172 1.4366039038 -0.2040703148
-2.0587158203 1.4466583729 -0.2044817358
-2.0577144623 1.4567238092 -0.2048931718
-2.0566675663 1.4667997360 -0.2053046077
-4.4475798607 3.2033247948 -0.4492838383
-4.4807047844 3.2510640621 -0.4538095891
-4.4097824097 3.2467641830 -0.4488723874
-4.3544287682 3.2294406891 -0.4443466663
-4.3271722794 3.2326762676 -0.4427009225
-4.2880115509 3.2267589569 -0.4398208857
-4.2880592346 3.2514975071 -0.4410551786
-4.2721567154 3.2641634941 -0.4406437576
-4.2567906380 3.2760128975 -0.4402323365
-4.2413940430 3.2877945900 -0.4398208857
-4.2298917770 3.3025796413 -0.4398208857
-4.2300786972 3.3265783787 -0.4410551786
-4.2106351852 3.3351278305 -0.4402323365
-1.9697700739 1.6132230759 -0.2069503218
-1.9180796146 1.5819411278 -0.2020131499
-1.9508075714 1.6205503941 -0.2061274648
-1.9413241148 1.6241443157 -0.2057160437
-1.9584653378 1.6502252817 -0.2081846297
-1.9868258238 1.6861418486 -0.2118875235
-1.9998340607 1.7092940807 -0.2139446735
-2.0805623531 1.7912133932 -0.2234076113
-2.4464559555 2.1374695301 -0.2649622560
-2.4389801025 2.1459960938 -0.2649622560
-2.3905103207 2.1180758476 -0.2604365051
-2.4128017426 2.1529986858 -0.2637279630
-2.4015707970 2.1580708027 -0.2633165121
-2.3899562359 2.1635084152 -0.2629050910
-2.3779556751 2.1693046093 -0.2624936700
-2.3450975418 2.1535413265 -0.2596136332
-2.3339135647 2.1583244801 -0.2592022121
-2.3263654709 2.1664581299 -0.2592022121
-2.8558673859 2.6799747944 -0.3200941384
-1.9271775484 1.8704060316 -0.2184704393
-2.9809339046 2.9380893707 -0.3423114717
-2.9812564850 2.9590213299 -0.3435457647
-2.9814693928 2.9799916744 -0.3447800875
-2.9535114765 2.9726829529 -0.3427229226
-2.9256405830 2.9652163982 -0.3406657577
-2.8978586197 2.9575910568 -0.3386085927
-2.8632254601 2.9426562786 -0.3357285857
-2.8494787216 2.9490444660 -0.3353171349
-2.8322770596 2.9517726898 -0.3344942927
-2.8047924042 2.9435808659 -0.3324371278
-1.6148638725 1.7164877653 -0.1913159192
-1.5757966042 1.6984319687 -0.1880244464
-1.5260775089 1.6561770439 -0.1826758534
-1.5404167175 1.6836004257 -0.1851444393
-1.5378720760 1.6926636696 -0.1855558604
-1.5952079296 1.7684692144 -0.1933730692
-1.6786148548 1.8877593279 -0.2053046077
-1.6325337887 1.8486980200 -0.2003674209
-1.5900228024 1.8130928278 -0.1958416551
-1.6000040770 1.8374584913 -0.1978988349
-1.6293387413 1.8845758438 -0.2024245858
-1.6583634615 1.9319196939 -0.2069503218
-3.8029518127 4.5688824654 -0.4875470102
-3.7869806290 4.5821294785 -0.4875470102
-3.7772781849 4.6030306816 -0.4883698821
-3.7611868382 4.6161885262 -0.4883698821
-3.7513115406 4.6370425224 -0.4891927242
-1.4843297005 1.8433541059 -0.1921387911
-1.4806652069 1.8526818752 -0.1925502121
-1.4618357420 1.8421967030 -0.1909044832
-6.9732513428 9.0134067535 -0.9376536608
-1.2114942074 1.5698823929 -0.1604585052
-1.1697709560 1.5265351534 -0.1555213332
-1.1674411297 1.5345834494 -0.1559327543
-6.8387074471 9.1656961441 -0.9409451485
-6.8303842545 9.2215566635 -0.9442365766
-6.7893042564 9.2332954407 -0.9430023432
-6.7687768936 9.2730426788 -0.9446480274
-0.9301027060 1.3436696529 -0.1316582561
-1.0466065407 1.5477273464 -0.1509955674
-1.0353988409 1.5432604551 -0.1501727104
-1.0242376328 1.5387326479 -0.1493498385
-1.0270633698 1.5547959805 -0.1505841315
-0.9998715520 1.5249688625 -0.1472926885
-0.9837216139 1.5117105246 -0.1456469595
-0.9757478833 1.5109411478 -0.1452355236
-0.9677919745 1.5101343393 -0.1448240876
-0.9625147581 1.5135033131 -0.1448240876
-0.9572258592 1.5168538094 -0.1448240876
-0.9098172188 1.4524837732 -0.1382411718
-0.9021242857 1.4514104128 -0.1378297508
-0.8918482065 1.4460512400 -0.1370068789
-0.8686841130 1.4193445444 -0.1341268569
-2.6412658691 4.3713588715 -0.4184264243
-0.7206489444 1.1944342852 -0.1119095311
-0.6834216118 1.1412302256 -0.1065609083
-0.6642683744 1.1178424358 -0.1040923148
-0.6126233339 1.0383931398 -0.0962751061
-0.6089950204 1.0405253172 -0.0962751061
-0.5979117751 1.0296827555 -0.0950408056
-0.5943136811 1.0317636728 -0.0950408056
-0.5931608677 1.0381697416 -0.0954522416
-0.5895333886 1.0402339697 -0.0954522416
-0.5858987570 1.0422854424 -0.0954522416
-0.5822569728 1.0443242788 -0.0954522416
-0.5786078572 1.0463504791 -0.0954522416
-0.5773280859 1.0527437925 -0.0958636701
-0.5760107636 1.0591408014 -0.0962751061
-0.5746557117 1.0655415058 -0.0966865346
-0.5732630491 1.0719455481 -0.0970979705
-0.5695175529 1.0739401579 -0.0970979705
-0.5657653809 1.0759216547 -0.0970979705
-0.5618183017 1.0779879093 -0.0970979705
-0.5578633547 1.0800399780 -0.0970979705
-0.5540899634 1.0819805861 -0.0970979705
-0.5503098369 1.0839082003 -0.0970979705
-0.5443027020 1.0813614130 -0.0966865346
-0.5713906288 1.1458177567 -0.1024465859
-0.5805222392 1.1746639013 -0.1049151793
-0.5981531143 1.2215236425 -0.1090294942
-0.5960434079 1.2280956507 -0.1094409302
-0.3458196223 0.7401663661 -0.0641834065
-0.3535502553 0.7640480995 -0.0662405640
-0.3549757600 0.7743635774 -0.0670634285
-0.3583652675 0.7892482877 -0.0682977214
-0.3515768349 0.7813800573 -0.0674748644
-0.3468474448 0.7780383229 -0.0670634285
-0.3421457410 0.7746731639 -0.0666520000
-0.3374715447 0.7712847590 -0.0662405640
-0.3328253925 0.7678731680 -0.0658291280
-0.3282072246 0.7644385695 -0.0654176995
-0.3216973245 0.7563827634 -0.0645948350
-0.3171513975 0.7528960109 -0.0641834065
-0.3107459843 0.7447752357 -0.0633605421
-0.3062728643 0.7412371635 -0.0629491061
-0.3016995490 0.7377296090 -0.0625376776
-0.2971559167 0.7341986299 -0.0621262453
-0.2927698791 0.7305932045 -0.0617148131
-0.2902178764 0.7316107154 -0.0617148131
-0.2858731747 0.7279685140 -0.0613033809
-0.2815576196 0.7243049145 -0.0608919486
-0.2772711217 0.7206200361 -0.0604805127
-0.2747540176 0.7215835452 -0.0604805127
-0.2705096900 0.7178628445 -0.0600690804
-0.2662945390 0.7141214013 -0.0596576482
-0.2638002038 0.7150465846 -0.0596576482
-0.2596278191 0.7112699151 -0.0592462160
-0.2571434677 0.7121718526 -0.0592462160
-0.2546559870 0.7130650878 -0.0592462160
-0.2505396307 0.7092393041 -0.0588347875
-0.2480624318 0.7101095319 -0.0588347875
-0.2439895272 0.7062494159 -0.0584233552
-0.2399466038 0.7023696303 -0.0580119230
-0.2359337658 0.6984702349 -0.0576004907
-0.2319509238 0.6945515275 -0.0571890585
-0.2279985100 0.6906135082 -0.0567776263
-0.2255864590 0.6914051175 -0.0567776263
-0.2216782123 0.6874343753 -0.0563661940
-0.2178004533 0.6834447980 -0.0559547655
-0.2139531076 0.6794366837 -0.0555433333
-0.2115801573 0.6801793575 -0.0555433333
-0.2077776939 0.6761393547 -0.0551318973
-0.2040060312 0.6720811725 -0.0547204651
-0.2016588151 0.6727891564 -0.0547204651
-0.1979321241 0.6686999798 -0.0543090329
-0.1955967546 0.6693868041 -0.0543090329
-0.1919156164 0.6652669311 -0.0538976006
-0.1895922571 0.6659328341 -0.0538976006
-0.1859567463 0.6617827415 -0.0534861684
-0.1823523641 0.6576154828 -0.0530747361
-0.1787795275 0.6534311771 -0.0526633039
-0.1752381325 0.6492300034 -0.0522518754
-0.1717282534 0.6450121403 -0.0518404432
-0.1681380421 0.6408070922 -0.0514290109
-0.1657883227 0.6414189935 -0.0514290109
-0.1623580605 0.6371549964 -0.0510175787
-0.1601328701 0.6377179027 -0.0510175787
-0.1567495316 0.6334259510 -0.0506061465
-0.1533977985 0.6291183233 -0.0501947142
-0.1500780582 0.6247949600 -0.0497832783
-0.1467907131 0.6204561591 -0.0493718460
-0.1435351819 0.6161021590 -0.0489604138
-0.1403121650 0.6117329597 -0.0485489853
-0.1371210963 0.6073489189 -0.0481375530
-0.1350000948 0.6078239083 -0.0481375530
-0.1318570375 0.6034139991 -0.0477261208
-0.1297498047 0.6038706303 -0.0477261208
-0.1276413053 0.6043198109 -0.0477261208
-0.1245613471 0.5998739004 -0.0473146886
-0.1224665120 0.6003050804 -0.0473146886
-0.1194350570 0.5958344340 -0.0469032563
-0.1164360121 0.5913500190 -0.0464918241
-0.1143712848 0.5917528272 -0.0464918241
-0.1114207357 0.5872445107 -0.0460803919
-0.1085030586 0.5827228427 -0.0456689633
-0.1056186184 0.5781880021 -0.0452575311
-0.1027668789 0.5736402273 -0.0448460989
-0.1007640511 0.5739954114 -0.0448460989
-0.0979612842 0.5694249272 -0.0444346629
-0.0959729031 0.5697634220 -0.0444346629
-0.0937844515 0.5701277256 -0.0444346629
-0.0917939395 0.5704516172 -0.0444346629
-0.0898020193 0.5707685947 -0.0444346629
-0.0879087597 0.5710632205 -0.0444346629
-0.0860145390 0.5713516474 -0.0444346629
-0.0840198025 0.5716483593 -0.0444346629
-0.0813629925 0.5669991374 -0.0440232307
-0.0792843625 0.5672935247 -0.0440232307
-0.0765801370 0.5626365542 -0.0436117984
-0.0747139230 0.5628874302 -0.0436117984
-0.0727485120 0.5631448030 -0.0436117984
-0.0700137764 0.5584698915 -0.0432003662
-0.0681614131 0.5586989522 -0.0432003662
-0.0662109479 0.5589334965 -0.0432003662
-0.0637385249 0.5542054772 -0.0427889340
-0.0618034787 0.5544245839 -0.0427889340
-0.0593817160 0.5496776700 -0.0423775017
-0.0574625060 0.5498816371 -0.0423775017
-0.0555428639 0.5500788093 -0.0423775017
-0.0536222942 0.5502693653 -0.0423775017
-0.0517010540 0.5504531860 -0.0423775017
-0.0497794747 0.5506303310 -0.0423775017
-0.0478569940 0.5508007407 -0.0423775017
-0.0459342040 0.5509644151 -0.0423775017
-0.0440106057 0.5511214137 -0.0423775017
-0.0424166918 0.5562437773 -0.0427889340
-0.0398491807 0.5464420319 -0.0419660732
-0.0373503305 0.5366292596 -0.0411432087
-0.0354770683 0.5367563367 -0.0411432087
0.1295105815 0.5937258601 -0.0469032563
0.1461763680 0.6563844085 -0.0522518754
0.1530250907 0.6752740741 -0.0538976006
0.1495989412 0.6505008936 -0.0518404432
0.1577355564 0.6741893291 -0.0538976006
0.1612784117 0.6784733534 -0.0543090329
0.1660599411 0.6875755191 -0.0551318973
0.1696832180 0.6918220520 -0.0555433333
0.1733381599 0.6960515380 -0.0559547655
0.1757665426 0.6954422593 -0.0559547655
0.1781931669 0.6948244572 -0.0559547655
0.1806172729 0.6941983104 -0.0559547655
0.1830395013 0.6935635209 -0.0559547655
0.1854595244 0.6929203272 -0.0559547655
0.1878769249 0.6922688484 -0.0559547655
0.1902923882 0.6916087270 -0.0559547655
0.1927051991 0.6909403205 -0.0559547655
0.1951159835 0.6902634501 -0.0559547655
0.1975244135 0.6895781159 -0.0559547655
0.1985048056 0.6841096282 -0.0555433333
0.2008917183 0.6834124923 -0.0555433333
0.2032758594 0.6827071309 -0.0555433333
0.2056578398 0.6819933653 -0.0555433333
0.2080373317 0.6812713146 -0.0555433333
0.2104139179 0.6805410385 -0.0555433333
0.2127883136 0.6798023582 -0.0555433333
0.2136182636 0.6743168235 -0.0551318973
0.2159708887 0.6735670567 -0.0551318973
0.2167463601 0.6680812836 -0.0547204651
0.2190768719 0.6673206687 -0.0547204651
0.2214050591 0.6665518284 -0.0547204651
0.2237302214 0.6657750010 -0.0547204651
0.2260529697 0.6649899483 -0.0547204651
0.2283729762 0.6641967893 -0.0547204651
0.2290166467 0.6587018967 -0.0543090329
0.2313146889 0.6578984261 -0.0543090329
0.2319036573 0.6524050832 -0.0538976006
0.2341796756 0.6515915990 -0.0538976006
0.2364528626 0.6507701278 -0.0538976006
0.2387228310 0.6499408484 -0.0538976006
0.2409902364 0.6491035819 -0.0538976006
0.2432543784 0.6482584476 -0.0538976006
0.2455158532 0.6474053860 -0.0538976006
0.2477743626 0.6465443373 -0.0538976006
0.2500295043 0.6456755996 -0.0538976006
0.2522819340 0.6447988153 -0.0538976006
0.2526626885 0.6392948031 -0.0534861684
0.2530084252 0.6337959170 -0.0530747361
0.2552193701 0.6329088211 -0.0530747361
0.2535937726 0.6228147745 -0.0522518754
0.2557663918 0.6219257116 -0.0522518754
0.2579355836 0.6210291982 -0.0522518754
0.2620665431 0.6247044206 -0.0526633039
0.2642456889 0.6237857342 -0.0526633039
0.2664213181 0.6228596568 -0.0526633039
0.2685939968 0.6219258308 -0.0526633039
0.2707630992 0.6209845543 -0.0526633039
0.2729292214 0.6200355291 -0.0526633039
0.2750920057 0.6190789938 -0.0526633039
0.2772511244 0.6181150675 -0.0526633039
0.2794072032 0.6171434522 -0.0526633039
0.2815595567 0.6161645055 -0.0526633039
0.2815855145 0.6106697917 -0.0522518754
0.2837155461 0.6096830964 -0.0522518754
0.2858418226 0.6086891294 -0.0522518754
0.2879649401 0.6076875925 -0.0522518754
0.2900842428 0.6066787839 -0.0522518754
0.2922002673 0.6056624651 -0.0522518754
0.2943127751 0.6046387553 -0.0522518754
0.2964213789 0.6036077738 -0.0522518754
0.2985266745 0.6025693417 -0.0522518754
0.3006280661 0.6015236974 -0.0522518754
0.3027260303 0.6004706025 -0.0522518754
0.3048203588 0.5994101763 -0.0522518754
0.3069106340 0.5983425975 -0.0522518754
0.3089975119 0.5972675681 -0.0522518754
0.3110803068 0.5961854458 -0.0522518754
0.3131595850 0.5950958729 -0.0522518754
0.3152350783 0.5939990282 -0.0522518754
0.3173064291 0.5928951502 -0.0522518754
0.3193742037 0.5917838216 -0.0522518754
