-1.3839282990 -7.0561866760 1.3098781109
-1.4095171690 -7.0561347008 1.3107788563
-1.4341396093 -7.0511713028 1.3107788563
-1.4537402391 -7.0220465660 1.3062745333
-1.4762083292 -7.0073051453 1.3044728041
-1.4996247292 -6.9973015785 1.3035719395
-1.5240403414 -6.9920239449 1.3035719395
-1.5452349186 -6.9722590446 1.3008692265
-1.5760704279 -6.9956054688 1.3062745333
-1.5850619078 -6.9229555130 1.2936621904
-1.6092175245 -6.9173803329 1.2936621904
-1.6367578506 -6.9260773659 1.2963649035
-1.6494103670 -6.8725070953 1.2873561382
-2.8063366413 -11.3286561966 2.1305787563
-3.3252499104 -13.2216863632 2.4900295734
-2.9255528450 -11.4660320282 2.1603078842
-2.9371609688 -11.3462543488 2.1395876408
-2.9779996872 -11.3406896591 2.1404886246
-3.0441956520 -11.4300146103 2.1594069004
-3.0840747356 -11.4193191528 2.1594069004
-3.0822813511 -11.2567100525 2.1305787563
-1.8684880733 -6.7396807671 1.2738429308
-3.1221017838 -11.0976381302 2.1044533253
-3.2040436268 -11.2380027771 2.1332814693
-1.9280245304 -6.6819505692 1.2666358948
-1.9568713903 -6.6940579414 1.2702393532
-1.9634250402 -6.6306104660 1.2594288588
-1.9794750214 -6.6001677513 1.2549244165
-2.0096673965 -6.6167416573 1.2594288588
-3.7155308723 -12.0660886765 2.3053493500
-2.0602083206 -6.6166343689 1.2621314526
-2.0803284645 -6.6000237465 1.2603297234
-2.1303279400 -6.6770396233 1.2765456438
-2.1445331573 -6.6414880753 1.2711402178
-2.1646404266 -6.6246147156 1.2693386078
-2.1258499622 -6.4302835464 1.2333033085
-2.1482832432 -6.4228239059 1.2333033085
-2.1722698212 -6.4199433327 1.2342042923
-2.1946668625 -6.4123215675 1.2342042923
-2.2154238224 -6.3999752998 1.2333033085
-2.2361211777 -6.3875622749 1.2324024439
-2.2567601204 -6.3750829697 1.2315015793
-2.2756769657 -6.3579082489 1.2296998501
-2.2950716019 -6.3457031250 1.2287989855
-2.3144106865 -6.3334398270 1.2278981209
-2.3279645443 -6.3022618294 1.2233936787
-2.2123732567 -5.9202299118 1.1504224539
-2.2483770847 -5.8908605576 1.1477198601
-1.8546688557 -4.7670736313 0.9297071099
-1.8694933653 -4.7559952736 0.9288062453
-1.8860838413 -4.7494401932 0.9288062453
-1.9008148909 -4.7382655144 0.9279054403
-1.9154913425 -4.7270450592 0.9270045161
-1.9301120043 -4.7157802582 0.9261035919
-1.9446773529 -4.7044711113 0.9252027273
-1.9591882229 -4.6931180954 0.9243019223
-1.9736427069 -4.6817207336 0.9234009981
-1.9880419970 -4.6702795029 0.9225000739
-2.0023851395 -4.6587948799 0.9215992093
-2.0166721344 -4.6472673416 0.9206982851
-2.0328822136 -4.6401996613 0.9206982851
-2.0470728874 -4.6285796165 0.9197974801
-2.0612075329 -4.6169171333 0.9188966155
-2.0773108006 -4.6096940041 0.9188966155
-2.0893065929 -4.5934653282 0.9170947671
-2.1032717228 -4.5816769600 0.9161939621
-2.1151070595 -4.5653867722 0.9143921733
-2.1289429665 -4.5535225868 0.9134912491
-2.1427211761 -4.5416178703 0.9125904441
-2.1564421654 -4.5296726227 0.9116895795
-2.1701066494 -4.5176863670 0.9107886553
-2.1837129593 -4.5056605339 0.9098877907
-2.1994276047 -4.4980101585 0.9098877907
-2.2129344940 -4.4858975410 0.9089869261
-2.2263834476 -4.4737448692 0.9080860615
-2.2397751808 -4.4615526199 0.9071851373
-2.2531082630 -4.4493222237 0.9062842727
-2.2686257362 -4.4414300919 0.9062842727
-2.2908871174 -4.4465932846 0.9089869261
-2.3223018646 -4.4691009521 0.9152930975
-2.3607649803 -4.5045046806 0.9243019223
-2.3764741421 -4.4962368011 0.9243019223
-2.3666563034 -4.4401993752 0.9143921733
-2.3774745464 -4.4232525826 0.9125904441
-2.3788104057 -4.3889985085 0.9071851373
-2.3941166401 -4.3806681633 0.9071851373
-2.4093930721 -4.3722844124 0.9071851373
-2.4222476482 -4.3595504761 0.9062842727
-2.4374501705 -4.3510689735 0.9062842727
-2.4502000809 -4.3382549286 0.9053834081
-2.4653289318 -4.3296756744 0.9053834081
-2.4804270267 -4.3210434914 0.9053834081
-2.4954955578 -4.3123588562 0.9053834081
-2.5080499649 -4.2993760109 0.9044825435
-2.5230422020 -4.2905955315 0.9044825435
-2.5380041599 -4.2817621231 0.9044825435
-2.5529346466 -4.2728767395 0.9044825435
-2.5652925968 -4.2597284317 0.9035816193
-2.5801458359 -4.2507481575 0.9035816193
-2.5923964977 -4.2375235558 0.9026807547
-2.6071729660 -4.2284483910 0.9026807547
-2.6193165779 -4.2151479721 0.9017799497
-2.6340146065 -4.2059788704 0.9017799497
-2.6539387703 -4.2050709724 0.9035816193
-3.5264165401 -5.4568724632 1.1828541756
-3.5427560806 -5.4404106140 1.1819533110
-3.5617249012 -5.4280109406 1.1819533110
-3.5806500912 -5.4155454636 1.1819533110
-3.5995326042 -5.4030132294 1.1819533110
-3.6156258583 -5.3863344193 1.1810523272
-3.6344060898 -5.3736805916 1.1810523272
-3.6531412601 -5.3609614372 1.1810523272
-3.6690447330 -5.3441247940 1.1801514626
-3.6876773834 -5.3312845230 1.1801514626
-3.7062642574 -5.3183798790 1.1801514626
-3.7219774723 -5.3013873100 1.1792505980
-3.7404599190 -5.2883634567 1.1792505980
-3.7560391426 -5.2712717056 1.1783497334
-3.7744169235 -5.2581281662 1.1783497334
-3.7927479744 -5.2449212074 1.1783497334
-3.8081340790 -5.2276768684 1.1774488688
-3.8263585567 -5.2143521309 1.1774488688
-3.8445365429 -5.2009639740 1.1774488688
-3.8626682758 -5.1875123978 1.1774488688
-3.8837068081 -5.1779298782 1.1783497334
-3.9017577171 -5.1643409729 1.1783497334
-3.9197607040 -5.1506900787 1.1783497334
-3.9377157688 -5.1369767189 1.1783497334
-3.9556236267 -5.1231999397 1.1783497334
-3.9734826088 -5.1093611717 1.1783497334
-3.9912929535 -5.0954599380 1.1783497334
-4.0121059418 -5.0853548050 1.1792505980
-4.0298323631 -5.0713191032 1.1792505980
-4.0505857468 -5.0610585213 1.1801514626
-4.0682272911 -5.0468888283 1.1801514626
-4.0858192444 -5.0326576233 1.1801514626
-4.1064791679 -5.0221686363 1.1810523272
-4.1239843369 -5.0078039169 1.1810523272
-4.1445827484 -4.9971613884 1.1819533110
-4.1651563644 -4.9864358902 1.1828541756
-4.1825366020 -4.9718666077 1.1828541756
-4.2030496597 -4.9609851837 1.1837550402
-4.2203407288 -4.9462838173 1.1837550402
-4.2375802994 -4.9315223694 1.1837550402
-4.2597079277 -4.9189300537 1.1846559048
-4.2759962082 -4.9047770500 1.1846559048
-4.2922377586 -4.8905701637 1.1846559048
-4.3125429153 -4.8792400360 1.1855567694
-4.3295483589 -4.8641571999 1.1855567694
-4.3497867584 -4.8526744843 1.1864576340
-4.3666987419 -4.8374614716 1.1864576340
-4.3868699074 -4.8258247375 1.1873584986
-4.4036884308 -4.8104825020 1.1873584986
-4.4237895012 -4.7986950874 1.1882593632
-4.4405131340 -4.7832241058 1.1882593632
-4.4605441093 -4.7712850571 1.1891603470
-4.4771728516 -4.7556848526 1.1891603470
-4.4971323013 -4.7435941696 1.1900612116
-4.5136632919 -4.7278676033 1.1900612116
-4.5335497856 -4.7156257629 1.1909619570
-4.5534067154 -4.7033028603 1.1918629408
-4.5732336044 -4.6908974648 1.1927638054
-4.5895800591 -4.6749057770 1.1927638054
-4.6093306541 -4.6623516083 1.1936646700
-4.6290497780 -4.6497163773 1.1945655346
-4.6487369537 -4.6370000839 1.1954663992
-4.6683926582 -4.6242022514 1.1963672638
-4.6880145073 -4.6113243103 1.1972682476
-4.7076034546 -4.5983657837 1.1981689930
-4.7271585464 -4.5853271484 1.1990699768
-4.7466807365 -4.5722074509 1.1999708414
-4.7661695480 -4.5590062141 1.2008717060
-4.7856230736 -4.5457262993 1.2017726898
-4.8050413132 -4.5323653221 1.2026734352
-4.8244252205 -4.5189242363 1.2035742998
-4.8437733650 -4.5054035187 1.2044752836
-4.8630871773 -4.4918012619 1.2053761482
-4.8823637962 -4.4781198502 1.2062770128
-4.9016041756 -4.4643588066 1.2071778774
-4.9244585037 -4.4538145065 1.2089796066
-4.9436364174 -4.4398808479 1.2098804712
-4.9627785683 -4.4258670807 1.2107813358
-4.9818820953 -4.4117746353 1.2116823196
-5.0017147064 -4.3967304230 1.2125831842
-5.0199742317 -4.3833513260 1.2134839296
-5.0404877663 -4.3672609329 1.2143849134
-5.0594325066 -4.3528447151 1.2152857780
-5.0783376694 -4.3383493423 1.2161866426
-5.0972042084 -4.3237733841 1.2170875072
-5.1160302162 -4.3091201782 1.2179883718
-5.1348156929 -4.2943878174 1.2188893557
-5.1535606384 -4.2795772552 1.2197902203
-5.1722645760 -4.2646875381 1.2206909657
-5.1909284592 -4.2497181892 1.2215919495
-5.2133688927 -4.2377715111 1.2233936787
-5.2319593430 -4.2226338387 1.2242946625
-5.2543478012 -4.2104897499 1.2260962725
-5.2728643417 -4.1951823235 1.2269972563
-5.2952003479 -4.1828408241 1.2287989855
-5.3136410713 -4.1673641205 1.2296998501
-5.3359212875 -4.1548275948 1.2315015793
-5.3542847633 -4.1391816139 1.2324024439
-5.3765087128 -4.1264495850 1.2342042923
-5.3947949409 -4.1106333733 1.2351051569
-5.4169602394 -4.0977048874 1.2369068861
-5.4391007423 -4.0846719742 1.2387086153
-5.4572706223 -4.0685977936 1.2396094799
-5.4793505669 -4.0553693771 1.2414113283
-5.4974398613 -4.0391259193 1.2423121929
-5.5194568634 -4.0257019997 1.2441139221
-5.5414471626 -4.0121731758 1.2459156513
-5.5594143867 -3.9956731796 1.2468166351
-5.5813393593 -3.9819493294 1.2486182451
-5.5992217064 -3.9652807713 1.2495192289
-5.6210803986 -3.9513621330 1.2513209581
-5.6429100037 -3.9373395443 1.2531226873
-5.6647100449 -3.9232122898 1.2549244165
-5.6864805222 -3.9089808464 1.2567262650
-5.7082209587 -3.8946435452 1.2585279942
-5.7340044975 -3.8829584122 1.2612305880
-5.7556910515 -3.8683998585 1.2630323172
-5.7773466110 -3.8537375927 1.2648341656
-5.7989692688 -3.8389708996 1.2666358948
-5.8205604553 -3.8240988255 1.2684376240
-5.8421168327 -3.8091239929 1.2702393532
-5.8636403084 -3.7940456867 1.2720412016
-5.8809885979 -3.7762091160 1.2729420662
-5.9024333954 -3.7609369755 1.2747437954
-5.9238443375 -3.7455599308 1.2765456438
-5.9452185631 -3.7300803661 1.2783472538
-5.9665575027 -3.7144975662 1.2801491022
-5.9891500473 -3.6967198849 1.2819508314
-6.0146055222 -3.6834876537 1.2846534252
-6.0351967812 -3.6686248779 1.2864552736
-6.0557556152 -3.6536657810 1.2882568836
-6.0769157410 -3.6375510693 1.2900587320
-6.1035327911 -3.6217098236 1.2927613258
-6.1246185303 -3.6053664684 1.2945631742
-6.1456637383 -3.5889194012 1.2963649035
-6.1709275246 -3.5748302937 1.2990676165
-6.1919002533 -3.5581624508 1.3008692265
-6.2128319740 -3.5413920879 1.3026710749
-6.2337217331 -3.5245184898 1.3044728041
-6.2545695305 -3.5075426102 1.3062745333
-6.2796754837 -3.4928493500 1.3089772463
-6.3004455566 -3.4756529331 1.3107788563
-6.3254885674 -3.4607114792 1.3134815693
-6.3505039215 -3.4456372261 1.3161842823
-6.3754906654 -3.4304304123 1.3188868761
-6.4004497528 -3.4150896072 1.3215895891
-6.4210290909 -3.3973209858 1.3233911991
-6.4459195137 -3.3817317486 1.3260939121
-6.4664144516 -3.3637440205 1.3278956413
-6.4912343025 -3.3479051590 1.3305982351
-6.5116434097 -3.3296966553 1.3324000835
-6.5363912582 -3.3136084080 1.3351026773
-6.5611062050 -3.2973878384 1.3378052711
-6.5901908875 -3.2832250595 1.3414088488
-6.6104340553 -3.2645504475 1.3432105780
-6.4560065269 -3.1325752735 1.3071753979
-6.4536004066 -3.1036365032 1.3044728041
-6.4954833984 -3.0958793163 1.3107788563
-6.5284938812 -3.0836732388 1.3152832985
-6.7575588226 -3.1628637314 1.3594263792
-6.7730212212 -3.1413226128 1.3603272438
-6.8018264771 -3.1258633137 1.3639308214
-6.8261289597 -3.1082065105 1.3666335344
-6.8503904343 -3.0904178619 1.3693361282
-6.8746113777 -3.0724959373 1.3720387220
-6.8987898827 -3.0544440746 1.3747413158
-6.9229264259 -3.0362610817 1.3774440289
-6.9470195770 -3.0179464817 1.3801466227
-6.9710688591 -2.9995007515 1.3828492165
-6.9950747490 -2.9809219837 1.3855519295
-7.0190348625 -2.9622139931 1.3882545233
-7.0394368172 -2.9390239716 1.3900562525
-7.0632925034 -2.9200615883 1.3927589655
-7.0825481415 -2.8991084099 1.3945606947
-7.1017432213 -2.8780565262 1.3963625431
-7.1345748901 -2.8623898029 1.4008668661
-4.5812869072 -1.8030883074 0.8945727944
-4.5829682350 -1.7853058577 0.8936719894
-4.5937628746 -1.7710616589 0.8945727944
-4.5999169350 -1.7550158501 0.8945727944
-4.6106185913 -1.7406796217 0.8954737186
-4.6166663170 -1.7245751619 0.8954737186
-4.6272735596 -1.7101496458 0.8963745832
-4.6332144737 -1.6939872503 0.8963745832
-4.6437263489 -1.6794718504 0.8972755075
-4.6310305595 -1.6566452980 0.8936719894
-4.6321463585 -1.6388348341 0.8927711248
-5.3223252296 -1.8404694796 1.0242993832
-5.4264769554 -1.8551983833 1.0432178974
-5.5587601662 -1.8786426783 1.0675415993
-5.6586079597 -1.8903088570 1.0855592489
-5.7726182938 -1.9059134722 1.1062793732
-5.8680973053 -1.9146591425 1.1233960390
-5.9683895111 -1.9242663383 1.1414136887
-6.0500693321 -1.9272396564 1.1558277607
-6.1318411827 -1.9296674728 1.1702418327
-6.2090053558 -1.9300916195 1.1837550402
-6.2815432549 -1.9285608530 1.1963672638
-6.3588533401 -1.9279700518 1.2098804712
-6.4315228462 -1.9254543781 1.2224928141
-6.5042510033 -1.9224562645 1.2351051569
-6.5581459999 -1.9134784937 1.2441139221
-6.6073298454 -1.9027905464 1.2522218227
-6.6991052628 -1.9038494825 1.2684376240
-8.0624656677 -2.1961729527 1.5233863592
-8.0938348770 -2.1743812561 1.5278908014
-8.1203966141 -2.1511409283 1.5314943790
-8.1516523361 -2.1289813519 1.5359987020
-8.1828536987 -2.1066277027 1.5405031443
-8.2139959335 -2.0840840340 1.5450074673
-8.2450809479 -2.0613486767 1.5495117903
-8.2761077881 -2.0384216309 1.5540163517
-8.3118534088 -2.0164594650 1.5594215393
-8.3427629471 -1.9931304455 1.5639258623
-8.3736114502 -1.9696124792 1.5684304237
-8.4043960571 -1.9459031820 1.5729347467
-8.4399127960 -1.9230928421 1.5783400536
-8.4705724716 -1.8989850283 1.5828443766
-8.5059709549 -1.8757404089 1.5882496834
-8.5365018845 -1.8512347937 1.5927541256
-8.5717763901 -1.8275612593 1.5981593132
-8.6021738052 -1.8026582003 1.6026637554
-8.6373205185 -1.7785542011 1.6080690622
-8.6675825119 -1.7532521486 1.6125733852
-8.7025966644 -1.7287180424 1.6179786921
-8.7327175140 -1.7030224800 1.6224831343
-8.7675943375 -1.6780591011 1.6278883219
-8.8024034500 -1.6528729200 1.6332936287
-8.8371448517 -1.6274619102 1.6386989355
-8.8669738770 -1.6009596586 1.6432033777
-8.9015684128 -1.5751230717 1.6486085653
-8.9457836151 -1.5507385731 1.6558156013
-8.9996356964 -1.5277049541 1.6648243666
-9.0485830307 -1.5035085678 1.6729322672
-9.1023254395 -1.4797776937 1.6819411516
-9.1468029022 -1.4509576559 1.6891481876
-9.1858358383 -1.4242759943 1.6954542398
-9.2247934341 -1.3973394632 1.7017604113
-9.2588081360 -1.3694313765 1.7071655989
-9.2976102829 -1.3420003653 1.7134718895
-9.3314609528 -1.3136346340 1.7188771963
-9.3700990677 -1.2857146263 1.7251832485
-9.3696546555 -1.2523506880 1.7242823839
-9.1097917557 -1.1530978680 1.6747341156
-9.1088790894 -1.1206946373 1.6738332510
-9.1664571762 -1.0952792168 1.6837430000
-9.2728261948 -1.0751111507 1.7026612759
-9.2569704056 -1.0405508280 1.6990576982
-9.2312097549 -1.0050529242 1.6936525106
-9.2053136826 -0.9697501063 1.6882473230
-9.2135353088 -0.9381074905 1.6891481876
-9.2559127808 -0.9097667933 1.6963552237
-9.2884111404 -0.8802193403 1.7017604113
-9.3355102539 -0.8517857194 1.7098683119
-9.3776226044 -0.8226094842 1.7170753479
-9.4196462631 -0.7931495905 1.7242823839
-9.4615764618 -0.7634063363 1.7314894199
-9.5034141541 -0.7333799601 1.7386964560
-9.5552129745 -0.7004517317 1.7477052212
-9.5968503952 -0.6698112488 1.7549122572
-9.6383914948 -0.6388860345 1.7621192932
-10.3566036224 -0.5772325993 1.8927468061
-10.3978481293 -0.5431101322 1.8999538422
-10.4537172318 -0.5094143152 1.9098634720
-10.4898252487 -0.4744592309 1.9161697626
-10.5356426239 -0.4396632314 1.9242774248
-10.5813455582 -0.4045531750 1.9323854446
-10.5974397659 -0.3681201339 1.9350881577
-10.6232385635 -0.3318789005 1.9395924807
-10.8318023682 -0.2626109719 1.9774293900
-10.8670740128 -0.2254968882 1.9837356806
-10.8628768921 -0.1874805242 1.9828346968
-10.8290405273 -0.1491018981 1.9765284061
-10.8147411346 -0.1111569554 1.9738259315
-10.8248996735 -0.0734681636 1.9756277800
-10.8742713928 -0.0358196832 1.9846364260
-10.9038400650 0.0021588448 1.9900417328
-10.9381923676 0.0403668582 1.9963479042
-10.9920825958 0.0789629072 2.0062575340
-11.0458374023 0.1179356650 2.0161671638
-11.0945348740 0.1572125405 2.0251760483
-11.1873483658 0.1976342052 2.0422928333
-11.2210092545 0.2374315262 2.0485987663
-11.2594451904 0.2775868773 2.0558059216
-11.4255571365 0.3216730654 2.0864357948
-11.6392955780 0.4091320038 2.1260745525
-11.6918544769 0.4518752098 2.1359841824
-11.7391700745 0.4988765121 2.1449928284
-11.8110494614 0.5432739258 2.1585061550
-11.8680267334 0.5874429941 2.1693167686
-11.9346590042 0.6325414777 2.1819288731
-11.9962120056 0.6778326035 2.1936404705
-12.0625009537 0.7238610983 2.2062528133
-12.1138906479 0.7694155574 2.2161624432
-12.2043638229 0.8179861903 2.2332789898
-12.2553987503 0.8644120693 2.2431886196
-11.4743471146 0.8895235062 2.1008498669
-11.5643091202 0.9371622205 2.1179666519
-11.6736783981 0.9871063828 2.1386868954
-11.6799602509 1.0287160873 2.1404886246
-11.7742462158 1.0784972906 2.1585061550
-11.7899942398 1.1214648485 2.1621096134
-11.6391811371 1.1480605602 2.1350831985
-11.5568237305 1.1806470156 2.1206691265
-11.4303646088 1.2079998255 2.0981471539
-11.4211893082 1.2473549843 2.0972461700
-11.4802961349 1.2944107056 2.1089577675
-11.4512825012 1.3316239119 2.1044533253
-11.4558506012 1.3767622709 2.1062550545
-11.4363336563 1.4149231911 2.1035525799
-11.4215679169 1.4535877705 2.1017508507
-11.3969182968 1.4908859730 2.0981471539
-11.3770236969 1.5286872387 2.0954446793
-11.3423871994 1.5643477440 2.0900392532
-11.3612041473 1.6073864698 2.0945436954
-11.3555250168 1.6470340490 2.0945436954
-11.3448419571 1.6859363317 2.0936429501
-10.0213279724 1.5243821144 1.8495044708
-9.9770717621 1.5532823801 1.8422975540
-9.9618768692 1.5865466595 1.8404958248
-9.9271545410 1.6165511608 1.8350905180
-9.9068984985 1.6487630606 1.8323879242
-9.8913869858 1.6816800833 1.8305861950
-9.8709201813 1.7136675119 1.8278834820
-9.8503522873 1.7455302477 1.8251808882
-9.8248414993 1.7763924599 1.8215773106
-9.8040723801 1.8079923391 1.8188745975
-9.7783699036 1.8385577202 1.8152712584
-9.7574024200 1.8698964119 1.8125685453
-9.7315111160 1.9001636505 1.8089650869
-9.7103490829 1.9312347174 1.8062623739
-9.6890897751 1.9621814489 1.8035598993
-9.6629161835 1.9920074940 1.7999562025
-9.6414642334 2.0226898193 1.7972536087
-9.6199178696 2.0532443523 1.7945510149
-9.6030807495 2.0847189426 1.7927491665
-9.5669336319 2.1118500233 1.7873439789
-9.5547056198 2.1441519260 1.7864431143
-9.5128440857 2.1731376648 1.7801369429
-11.6368103027 2.7881438732 2.1846315861
-11.6031150818 2.8229222298 2.1801271439
-11.5836439133 2.8610439301 2.1783254147
-11.5545053482 2.8966708183 2.1747219563
-11.5300254822 2.9333407879 2.1720192432
-11.5006704330 2.9686441422 2.1684157848
-11.4759664536 3.0050261021 2.1657130718
-11.4511499405 3.0412721634 2.1630105972
-11.4214687347 3.0761029720 2.1594069004
-11.3964300156 3.1120586395 2.1567041874
-11.3712806702 3.1478772163 2.1540017128
-11.3460187912 3.1835579872 2.1512989998
-11.3206481934 3.2191009521 2.1485965252
-11.2998905182 3.2558724880 2.1467947960
-11.2742948532 3.2911546230 2.1440920830
-11.2485914230 3.3262979984 2.1413893700
-11.2216062546 3.3652205467 2.1386868954
-11.1956748962 3.4000759125 2.1359841824
-11.1702365875 3.4328432083 2.1332814693
-11.1493997574 3.4669415951 2.1314797401
-11.1219358444 3.5052850246 2.1287770271
-11.0955781937 3.5395953655 2.1260745525
-11.0737962723 3.5752773285 2.1242728233
-11.0472259521 3.6093208790 2.1215701103
-11.0205516815 3.6432254314 2.1188673973
-10.9984407425 3.6785473824 2.1170656681
-10.9715595245 3.7121806145 2.1143629551
-10.9492301941 3.7472658157 2.1125612259
-10.9221429825 3.7806296349 2.1098587513
-10.8949546814 3.8138527870 2.1071560383
-10.8723049164 3.8485727310 2.1053540707
-10.8449153900 3.8815219402 2.1026515961
-10.8220529556 3.9160020351 2.1008498669
-10.7990818024 3.9503700733 2.0990481377
-10.7760009766 3.9846282005 2.0972461700
-10.7528152466 4.0187706947 2.0954446793
-10.7249212265 4.0510597229 2.0927419662
-10.7061214447 4.0867152214 2.0918409824
-10.6734399796 4.1169729233 2.0882375240
-8.8600606918 3.4877836704 1.7368946075
-8.8386945724 3.5150494576 1.7350929976
-8.8263711929 3.5458805561 1.7350929976
-8.7990236282 3.5741846561 1.7323902845
-8.7819452286 3.6030073166 1.7314894199
-8.7647724152 3.6317541599 1.7305885553
-8.7384338379 3.6566255093 1.7278859615
-8.7301454544 3.6890223026 1.7287867069
-8.7217378616 3.7214059830 1.7296875715
-10.4156370163 4.4883656502 2.0702199936
-10.4044151306 4.5266594887 2.0711207390
-10.3750438690 4.5570120811 2.0684182644
-10.3500833511 4.5892081261 2.0666162968
-10.3250255585 4.6212854385 2.0648148060
-10.2953882217 4.6512169838 2.0621120930
-10.2701416016 4.6830401421 2.0603101254
-10.2447986603 4.7147469521 2.0585086346
-10.2193593979 4.7463312149 2.0567069054
-10.1938247681 4.7777948380 2.0549049377
-10.1726408005 4.8112435341 2.0540041924
-10.1469087601 4.8424816132 2.0522022247
-10.1255121231 4.8757376671 2.0513014793
-10.0995864868 4.9067497253 2.0494997501
-10.0779829025 4.9398064613 2.0485987663
-10.0518627167 4.9705901146 2.0467970371
-10.0300512314 5.0034494400 2.0458962917
-10.0019826889 5.0374960899 2.0440943241
-9.9799537659 5.0701518059 2.0431935787
-9.9534425735 5.1004667282 2.0413918495
-9.9312105179 5.1329188347 2.0404908657
-9.9088726044 5.1652779579 2.0395901203
-9.8820781708 5.1952524185 2.0377881527
-9.8595380783 5.2274122238 2.0368874073
-9.8368959427 5.2594752312 2.0359866619
-9.8141489029 5.2914433479 2.0350856781
-9.7912988663 5.3233170509 2.0341849327
-9.7683458328 5.3550958633 2.0332839489
-9.7452898026 5.3867816925 2.0323829651
-9.7221317291 5.4183692932 2.0314822197
-9.6988725662 5.4498610497 2.0305812359
-9.6755123138 5.4812564850 2.0296802521
-9.6520509720 5.5125551224 2.0287795067
-9.6284885406 5.5437598228 2.0278787613
-9.6048259735 5.5748639107 2.0269777775
-9.5810642242 5.6058707237 2.0260767937
-9.5614376068 5.6392803192 2.0260767937
-9.5374689102 5.6701059341 2.0251760483
-9.5176172256 5.7033653259 2.0251760483
-9.4934425354 5.7340078354 2.0242750645
-9.4671564102 5.7678565979 2.0233743191
-9.4427757263 5.7982921600 2.0224733353
-9.4182977676 5.8286275864 2.0215723515
-9.3978948593 5.8614673615 2.0215723515
-9.3732156754 5.8916172981 2.0206716061
-9.3525915146 5.9243016243 2.0206716061
-9.3277111053 5.9542636871 2.0197708607
-9.3068704605 5.9867863655 2.0197708607
-9.2817907333 6.0165591240 2.0188698769
-9.2607326508 6.0489215851 2.0188698769
-9.2354526520 6.0785069466 2.0179688931
-9.2141790390 6.1107068062 2.0179688931
-9.1927928925 6.1428327560 2.0179688931
-9.1672163010 6.1721348763 2.0170681477
-9.1456165314 6.2040963173 2.0170681477
-9.1239023209 6.2359848022 2.0170681477
-9.1020803452 6.2677946091 2.0170681477
-9.0801458359 6.2995281219 2.0170681477
-9.0581016541 6.3311848640 2.0170681477
-9.0319271088 6.3599309921 2.0161671638
-9.0136804581 6.3942689896 2.0170681477
-5.5793323517 3.9847612381 1.2486182451
-5.5520243645 3.9975242615 1.2459156513
-5.5340576172 4.0139889717 1.2450147867
-5.5200128555 4.0332818031 1.2450147867
-5.5019416809 4.0496068001 1.2441139221
-5.4838232994 4.0658559799 1.2432129383
-5.4656596184 4.0820274353 1.2423121929
-5.4474496841 4.0981206894 1.2414113283
-5.4252762794 4.1111636162 1.2396094799
-5.4030790329 4.1241016388 1.2378077507
-5.3886494637 4.1429381371 1.2378077507
-5.3858137131 4.1707653999 1.2405103445
-5.3789734840 4.1955957413 1.2423121929
-5.3720254898 4.2204289436 1.2441139221
-5.3611154556 4.2422094345 1.2450147867
-5.3462738991 4.2608985901 1.2450147867
-5.3313679695 4.2795343399 1.2450147867
-5.3163971901 4.2981181145 1.2450147867
-5.3013620377 4.3166494370 1.2450147867
-5.2862620354 4.3351278305 1.2450147867
-5.2710967064 4.3535552025 1.2450147867
-5.2558679581 4.3719277382 1.2450147867
-5.2405753136 4.3902473450 1.2450147867
-5.2252187729 4.4085135460 1.2450147867
-5.2135438919 4.4299135208 1.2459156513
-5.1980481148 4.4480862617 1.2459156513
-5.1638746262 4.4501352310 1.2414113283
-5.0555148125 4.3874678612 1.2188893557
-5.1375470161 4.5252737999 1.2468166351
-5.0481863022 4.4778475761 1.2287989855
-5.0398545265 4.5020017624 1.2306007147
-5.0241088867 4.5195665359 1.2306007147
-5.0119447708 4.5403809547 1.2315015793
-5.0904636383 4.6441054344 1.2549244165
-5.0778408051 4.6651763916 1.2558252811
-5.0543098450 4.6761884689 1.2540235519
-5.0487432480 4.7038688660 1.2567262650
-5.0287094116 4.7180953026 1.2558252811
-5.0157818794 4.7390003204 1.2567262650
-5.0027699471 4.7598724365 1.2576271296
-4.9896717072 4.7807121277 1.2585279942
-4.9835639000 4.8083534241 1.2612305880
-4.9526505470 4.8119997978 1.2576271296
-4.9358239174 4.8292579651 1.2576271296
-2.9797804356 2.9534308910 0.7612427473
-2.9138298035 2.9081518650 0.7468287349
-2.8378391266 2.8519759178 0.7297119498
-2.7691812515 2.8023123741 0.7143970728
-2.6940257549 2.7451744080 0.6972803473
-2.6158754826 2.6840205193 0.6792627573
-2.5552623272 2.6400496960 0.6657496095
-2.4813776016 2.5814852715 0.6486328840
-2.4282758236 2.5438146591 0.6369214654
-2.3822240829 2.5129549503 0.6270117760
-2.3321866989 2.4790329933 0.6162012219
-2.2832992077 2.4439673424 0.6053906679
-2.2346847057 2.4085919857 0.5945801735
-2.1863462925 2.3729066849 0.5837696195
-2.1415982246 2.3405480385 0.5738599300
-2.0971031189 2.3079063892 0.5639502406
-2.0561509132 2.2786405087 0.5549414754
-2.0187039375 2.2527861595 0.5468335152
-1.9749380350 2.2193381786 0.5369238853
-1.9314305782 2.1856124401 0.5270141959
-1.9043679237 2.1701245308 0.5216089487
-1.8153171539 2.0976855755 0.5008887053
-1.7792018652 2.0703809261 0.4927808046
-1.7624093294 2.0653362274 0.4900781810
-1.7234706879 2.0338883400 0.4810693562
-1.6974085569 2.0172734261 0.4756641090
-1.6683375835 1.9967215061 0.4693579674
-1.6394313574 1.9759908915 0.4630517960
-1.6106904745 1.9550830126 0.4567456245
-1.5821160078 1.9339991808 0.4504395127
-1.5568009615 1.9165641069 0.4450342357
-1.5278861523 1.8956745863 0.4387280643
-1.5035289526 1.8773907423 0.4333228171
-1.4749530554 1.8561472893 0.4270166457
-1.4502407312 1.8380753994 0.4216113687
-1.4286966324 1.8237328529 0.4171069860
-1.4042600393 1.8053729534 0.4117016792
-1.3829656839 1.7907654047 0.4071973264
-1.3588079214 1.7721207142 0.4017920494
-1.3377666473 1.7572499514 0.3972876370
-1.3168462515 1.7422543764 0.3927832544
-1.2960467339 1.7271341085 0.3882788420
-1.2782968283 1.7158421278 0.3846753538
-1.2606421709 1.7044470310 0.3810718358
-1.2430828810 1.6929498911 0.3774683177
-1.2256191969 1.6813510656 0.3738647997
-1.2082518339 1.6696510315 0.3702612817
-1.1909806728 1.6578507423 0.3666577339
-1.1709625721 1.6419383287 0.3621533811
-1.1539009809 1.6299284697 0.3585498631
-1.1369376183 1.6178195477 0.3549463153
-1.1200729609 1.6056122780 0.3513427973
-1.1060956717 1.5973588228 0.3486401737
-1.0921901464 1.5890271664 0.3459375501
-1.0783562660 1.5806180239 0.3432348967
-1.0645946264 1.5721318722 0.3405322731
-1.0509054661 1.5635689497 0.3378296196
-1.0372886658 1.5549300909 0.3351269960
-1.0237455368 1.5462150574 0.3324243426
-1.0102759600 1.5374245644 0.3297217190
-0.9942060709 1.5244315863 0.3261182010
-0.9835590720 1.5196189880 0.3243164420
-0.9703119993 1.5106049776 0.3216138184
-0.9571403861 1.5015168190 0.3189111650
-0.9440441132 1.4923552275 0.3162085414
-0.9336254001 1.4872943163 0.3144067824
-0.9232536554 1.4821789265 0.3126050234
-0.9103558660 1.4728178978 0.3099023700
-0.9000932574 1.4675854445 0.3081006110
-0.8873350620 1.4580898285 0.3053979874
-0.8741483688 1.4488285780 0.3026953340
-0.8615484834 1.4391869307 0.2999927104
-0.8515243530 1.4337120056 0.2981909513
-0.8390661478 1.4239392281 0.2954883277
-0.8291542530 1.4183514118 0.2936865687
-0.8168389201 1.4084489346 0.2909839153
-0.8070411086 1.4027491808 0.2891821563
-0.7972931266 1.3969981670 0.2873803973
-0.7875951529 1.3911963701 0.2855786383
-0.7755537629 1.3810477257 0.2828760147
-0.7659716010 1.3751367331 0.2810742557
-0.7564402223 1.3691757917 0.2792724967
-0.7446116209 1.3588439226 0.2765698433
-0.7351976037 1.3527756929 0.2747680843
-0.7235167027 1.3423210382 0.2720654607
-0.7142210007 1.3361469507 0.2702637017
-0.7049773335 1.3299244642 0.2684619427
-0.6957858205 1.3236536980 0.2666601837
-0.6889039874 1.3217048645 0.2657593191
-0.6798019409 1.3153467178 0.2639575303
-0.6707530618 1.3089411259 0.2621557713
-0.6617572904 1.3024884462 0.2603540123
-0.6550107598 1.3003897667 0.2594531476
-0.6461063623 1.2938516140 0.2576513886
-0.6372553110 1.2872674465 0.2558496296
-0.6306082606 1.2850606441 0.2549487650
-0.6218500733 1.2783921957 0.2531470060
-0.6131461859 1.2716783285 0.2513452470
-0.6066001654 1.2693651915 0.2504443526
-0.5979896188 1.2625689507 0.2486426085
-0.5869251490 1.2514728308 0.2459399700
-0.5784428716 1.2445775270 0.2441382259
-0.5679763556 1.2331628799 0.2414355576
-0.5596206784 1.2261730433 0.2396338135
-0.5493124723 1.2146506310 0.2369311750
-0.5410838127 1.2075679302 0.2351294160
-0.5329117179 1.2004424334 0.2333276570
-0.5247959495 1.1932748556 0.2315258980
-0.5167368054 1.1860653162 0.2297241539
-0.5106639862 1.1833379269 0.2288232744
-0.5046162605 1.1805827618 0.2279223949
-0.5004922152 1.1823370457 0.2279223949
-0.4963620901 1.1840769053 0.2279223949
-0.4847610295 1.1676008701 0.2243188769
-0.4732811153 1.1510585546 0.2207153589
-0.4619223475 1.1344506741 0.2171118259
-0.4506857097 1.1177775860 0.2135083228
-0.4431762099 1.1101920605 0.2117065638
-0.4375117421 1.1071499586 0.2108056843
-0.4318739474 1.1040819883 0.2099048048
-0.4245081246 1.0963937044 0.2081030458
-0.4189400077 1.0932681561 0.2072021663
-0.4116765559 1.0855104923 0.2054004222
-0.4061786532 1.0823282003 0.2044995427
-0.4007080495 1.0791207552 0.2035986632
-0.3935904503 1.0712640285 0.2017969042
-0.3881908059 1.0680010319 0.2008960247
-0.3828187585 1.0647134781 0.1999951452
-0.3774744272 1.0614014864 0.1990942657
-0.3721578717 1.0580651760 0.1981933862
-0.3652758896 1.0500519276 0.1963916272
-0.3600314856 1.0466618538 0.1954907328
-0.3548152745 1.0432481766 0.1945898533
-0.3496272862 1.0398108959 0.1936889738
-0.3444676399 1.0363502502 0.1927880943
-0.3393361568 1.0328662395 0.1918872148
-0.3342334628 1.0293591022 0.1909863502
-0.3291594386 1.0258289576 0.1900854707
-0.3241141140 1.0222760439 0.1891845912
-0.3190976679 1.0187003613 0.1882837117
-0.3141098619 1.0151023865 0.1873828322
-0.3091513216 1.0114818811 0.1864819527
-0.3038700521 1.0079454184 0.1855810732
-0.2989711463 1.0042788982 0.1846801937
-0.2954637706 1.0053163767 0.1846801937
-0.2906070948 1.0016111135 0.1837793142
-0.2871088386 1.0026195049 0.1837793142
-0.2822946906 0.9988758564 0.1828784347
-0.2775101662 0.9951108098 0.1819775552
-0.2740349472 0.9960734248 0.1819775552
-0.2692934275 0.9922707081 0.1810766906
-0.2645815611 0.9884470701 0.1801758111
-0.2611296773 0.9893646240 0.1801758111
-0.2564614713 0.9855038524 0.1792749316
-0.2518234253 0.9816226363 0.1783740371
-0.2472156137 0.9777210951 0.1774731576
-0.2426378876 0.9737994671 0.1765722781
-0.2369446158 0.9650750756 0.1747705191
-0.2290552109 0.9467497468 0.1711670160
-0.2246358097 0.9427530169 0.1702661365
-0.2136697471 0.9099702835 0.1639599800
-0.0972101018 0.5374751091 0.0927905366
-0.0929034203 0.5232581496 0.0900879055
-0.0966279283 0.5575558543 0.0963940471
-0.0954571515 0.5627463460 0.0972949266
-0.0934923887 0.5630760789 0.0972949266
-0.0915262103 0.5633990169 0.0972949266
-0.0895591900 0.5637150407 0.0972949266
-0.0875907913 0.5640242696 0.0972949266
-0.0856213346 0.5643265843 0.0972949266
-0.0836511180 0.5646219850 0.0972949266
-0.0816795975 0.5649105906 0.0972949266
-0.0790671185 0.5603159070 0.0963940471
-0.0771106482 0.5605884790 0.0963940471
-0.0751532465 0.5608542562 0.0963940471
-0.0731952116 0.5611131787 0.0963940471
-0.0706639066 0.5564804673 0.0954931751
-0.0687211677 0.5567237139 0.0954931751
-0.0662393123 0.5520715714 0.0945922956
-0.0622280613 0.5327374339 0.0909887776
-0.0608720742 0.5378436446 0.0918896571
-0.0564597808 0.5333796144 0.0909887776
-0.0541468896 0.5286759734 0.0900879055
0.1445232630 0.6533510089 0.1153125092
0.1557475626 0.6911577582 0.1225195453
0.1581590027 0.6906099319 0.1225195453
0.1617203355 0.6948351264 0.1234204248
0.1653126925 0.6990438104 0.1243213043
0.1677519530 0.6984624863 0.1243213043
0.1701891422 0.6978726387 0.1243213043
0.1714058369 0.6925094128 0.1234204248
0.1725875139 0.6871461868 0.1225195453
0.1737334877 0.6817833185 0.1216186732
0.1748444736 0.6764207482 0.1207177788
0.1772046834 0.6758062243 0.1207177788
0.1795624197 0.6751835942 0.1207177788
0.1832359433 0.6792911291 0.1216186732
0.1856057793 0.6786473989 0.1216186732
0.1879737079 0.6779953837 0.1216186732
0.1889721453 0.6726106405 0.1207177788
0.1913186461 0.6719470024 0.1207177788
0.1936631501 0.6712750196 0.1207177788
0.1945883781 0.6658852696 0.1198169068
0.1969117075 0.6652019024 0.1198169068
0.1992326081 0.6645104885 0.1198169068
0.2015507817 0.6638110280 0.1198169068
0.2023846358 0.6584138870 0.1189160272
0.2046814859 0.6577035189 0.1189160272
0.2069761902 0.6569849849 0.1189160272
0.2092683464 0.6562584639 0.1189160272
0.2131051868 0.6601923704 0.1198169068
0.2154085338 0.6594444513 0.1198169068
0.2177089006 0.6586885452 0.1198169068
0.2184106410 0.6532726884 0.1189160272
0.2206897736 0.6525062323 0.1189160272
0.2229659110 0.6517319679 0.1189160272
0.2235947102 0.6463147402 0.1180151477
0.2258491963 0.6455304027 0.1180151477
0.2281012833 0.6447380781 0.1180151477
0.2286571562 0.6393204331 0.1171142682
0.2308872342 0.6385184526 0.1171142682
0.2331148088 0.6377085447 0.1171142682
0.2353391945 0.6368910074 0.1171142682
0.2375610620 0.6360656023 0.1171142682
0.2397800088 0.6352324486 0.1171142682
0.2419957519 0.6343916655 0.1171142682
0.2442088425 0.6335430145 0.1171142682
0.2464186400 0.6326867938 0.1171142682
0.2486257553 0.6318227053 0.1171142682
0.2508298159 0.6309509277 0.1171142682
0.2530305386 0.6300716400 0.1171142682
0.2552284896 0.6291844845 0.1171142682
0.2574230134 0.6282898188 0.1171142682
0.2576977909 0.6228581667 0.1162133887
0.2598704994 0.6219547987 0.1162133887
0.2600912452 0.6165282130 0.1153125092
0.2602776289 0.6111076474 0.1144116372
0.2624090016 0.6101954579 0.1144116372
0.2645375133 0.6092756987 0.1144116372
0.2666627765 0.6083485484 0.1144116372
0.2687845230 0.6074141264 0.1144116372
0.2709032893 0.6064721346 0.1144116372
0.2730184197 0.6055228710 0.1144116372
0.2772043943 0.6090256572 0.1153125092
0.2793287039 0.6080542803 0.1153125092
0.2814493477 0.6070756316 0.1153125092
0.2835668325 0.6060894132 0.1153125092
0.2856805623 0.6050959826 0.1153125092
0.2856397927 0.5996723175 0.1144116372
0.2877314091 0.5986715555 0.1144116372
0.2898192406 0.5976636410 0.1144116372
0.2919038236 0.5966482759 0.1144116372
0.2939845324 0.5956258178 0.1144116372
0.2982902229 0.5989803672 0.1153125092
0.3003793359 0.5979354382 0.1153125092
0.3024645150 0.5968833566 0.1153125092
0.3045463264 0.5958238840 0.1153125092
0.3066240847 0.5947572589 0.1153125092
0.3086984456 0.5936832428 0.1153125092
0.3107689917 0.5926020145 0.1153125092
0.3128355145 0.5915136933 0.1153125092
0.3148984909 0.5904180408 0.1153125092
0.3145925105 0.5850030184 0.1144116372
0.3166327477 0.5839012861 0.1144116372
0.3186691105 0.5827924013 0.1144116372
0.3231112063 0.5859639049 0.1153125092
0.3227299452 0.5805535316 0.1144116372
0.3247542977 0.5794235468 0.1144116372
0.3267750144 0.5782863498 0.1144116372
0.3263222277 0.5728888512 0.1135107577
0.3257363737 0.5675587058 0.1126098782
0.3276166916 0.5664753914 0.1126098782
0.3270797729 0.5611002445 0.1117089987
0.3290365040 0.5599550605 0.1117089987
0.3311841488 0.5586875081 0.1117089987
0.3356901705 0.5617287755 0.1126098782
0.3427943587 0.5689367652 0.1144116372
0.3499526083 0.5761020780 0.1162133887
0.3571653068 0.5832240582 0.1180151477
0.3618154824 0.5861381888 0.1189160272
0.3664900362 0.5890270472 0.1198169068
0.3657966256 0.5836619139 0.1189160272
0.3677301407 0.5824456215 0.1189160272
0.3672895730 0.5769018531 0.1180151477
0.3692006469 0.5756806731 0.1180151477
0.3710072935 0.5745180249 0.1180151477
0.3731104434 0.5731543899 0.1180151477
0.3751089573 0.5718484521 0.1180151477
0.3771029115 0.5705354810 0.1180151477
0.3790919781 0.5692157745 0.1180151477
0.3810767233 0.5678889751 0.1180151477
0.3830565214 0.5665554404 0.1180151477
0.3822307587 0.5611723065 0.1171142682
0.3841873705 0.5598345995 0.1171142682
0.3861390650 0.5584902167 0.1171142682
0.3880863190 0.5571388602 0.1171142682
0.3900285661 0.5557809472 0.1171142682
0.3919663429 0.5544160008 0.1171142682
0.3938993216 0.5530443192 0.1171142682
0.3958272338 0.5516660810 0.1171142682
0.3977506161 0.5502809882 0.1171142682
0.3996688724 0.5488893390 0.1171142682
0.4015825391 0.5474907756 0.1171142682
0.4034912884 0.5460855961 0.1171142682
0.4053948522 0.5446739197 0.1171142682
0.4072937667 0.5432554483 0.1171142682
0.4091874361 0.5418305397 0.1171142682
0.4110763967 0.5403988361 0.1171142682
0.4129603505 0.5389605165 0.1171142682
0.4148389995 0.5375158787 0.1171142682
0.4167128503 0.5360644460 0.1171142682
0.4185813665 0.5346066952 0.1171142682
0.4204450548 0.5331422687 0.1171142682
0.4223035872 0.5316712856 0.1171142682
0.4272598624 0.5340096951 0.1180151477
0.4291214049 0.5325149298 0.1180151477
0.4309774339 0.5310139060 0.1180151477
0.4328285158 0.5295062065 0.1180151477
0.4346742928 0.5279920697 0.1180151477
0.4365145266 0.5264716744 0.1180151477
0.4383497238 0.5249446630 0.1180151477
0.4401792884 0.5234114528 0.1180151477
0.4420037568 0.5218716860 0.1180151477
0.4438228309 0.5203255415 0.1180151477
0.4456362426 0.5187732577 0.1180151477
0.4441972077 0.5135207176 0.1171142682
0.4459868670 0.5119671822 0.1171142682
0.4477713406 0.5104072094 0.1171142682
0.4495503604 0.5088409781 0.1171142682
0.4546222091 0.5109168291 0.1180151477
0.4564029872 0.5093266964 0.1180151477
0.4615018666 0.5113554597 0.1189160272
0.4632841349 0.5097413063 0.1189160272
0.4650607109 0.5081209540 0.1189160272
0.4666546881 0.5066574812 0.1189160272
0.4684202373 0.5050256252 0.1189160272
0.4703559577 0.5032233000 0.1189160272
0.4720221460 0.5016607046 0.1189160272
0.4736831188 0.5000926852 0.1189160272
0.4754259884 0.4984360635 0.1189160272
0.4771628082 0.4967736304 0.1189160272
0.4788940847 0.4951048791 0.1189160272
0.4806194901 0.4934301376 0.1189160272
0.4823388159 0.4917495847 0.1189160272
0.4840525091 0.4900628328 0.1189160272
0.4857600331 0.4883703291 0.1189160272
0.4874618948 0.4866716266 0.1189160272
0.4891578257 0.4849670231 0.1189160272
0.4873156846 0.4798341095 0.1180151477
0.4889877737 0.4781300426 0.1180151477
0.4906536043 0.4764204025 0.1180151477
0.4923137426 0.4747046828 0.1180151477
0.4939678609 0.4729832113 0.1180151477
0.4956157207 0.4712561965 0.1180151477
0.4972577989 0.4695231915 0.1180151477
0.5025079846 0.4711200595 0.1189160272
0.5041495562 0.4693630040 0.1189160272
0.5057849288 0.4676002264 0.1189160272
0.5074139833 0.4658319950 0.1189160272
0.5126976967 0.4673423767 0.1198169068
0.5143257380 0.4655500352 0.1198169068
0.5196312666 0.4670106471 0.1207177788
0.5212583542 0.4651938379 0.1207177788
0.5228788853 0.4633716345 0.1207177788
0.5244932771 0.4615435004 0.1207177788
0.5261009932 0.4597100317 0.1207177788
0.5277025700 0.4578706920 0.1207177788
0.5292977095 0.4560257792 0.1207177788
0.5308861732 0.4541755617 0.1207177788
0.5324684381 0.4523195326 0.1207177788
0.5340439081 0.4504582882 0.1207177788
0.5356131792 0.4485912621 0.1207177788
0.5371758342 0.4467188120 0.1207177788
0.5387318134 0.4448411465 0.1207177788
0.5441089869 0.4460462630 0.1216186732
0.5456625223 0.4441444278 0.1216186732
0.5472096205 0.4422368705 0.1216186732
0.5487500429 0.4403239787 0.1216186732
0.5502836108 0.4384059608 0.1216186732
0.5518106818 0.4364823103 0.1216186732
0.5533307791 0.4345536530 0.1216186732
0.5548443794 0.4326193929 0.1216186732
0.5563511848 0.4306798875 0.1216186732
0.5578510165 0.4287354052 0.1216186732
0.5632773042 0.4297383726 0.1225195453
0.5646992326 0.4278680980 0.1225195453
0.5661150217 0.4259931147 0.1225195453
0.5715610981 0.4269275963 0.1234204248
0.5731222034 0.4248296320 0.1234204248
0.5745276213 0.4229270220 0.1234204248
0.5760005116 0.4209188521 0.1234204248
0.5774663687 0.4189055562 0.1234204248
0.5829378963 0.4197308421 0.1243213043
0.5843995810 0.4176933467 0.1243213043
0.5858538747 0.4156510532 0.1243213043
0.5873013139 0.4136033654 0.1243213043
0.5887415409 0.4115506709 0.1243213043
0.5901744366 0.4094932675 0.1243213043
0.5956718922 0.4101892710 0.1252221763
0.6011811495 0.4108521938 0.1261230558
0.6067024469 0.4114812911 0.1270239353
0.6081351638 0.4093608856 0.1270239353
0.6136699915 0.4099374115 0.1279248148
0.6150972843 0.4077926576 0.1279248148
0.6165168285 0.4056432843 0.1279248148
0.6179291606 0.4034886360 0.1279248148
0.6193339229 0.4013290703 0.1279248148
0.6207308769 0.3991649449 0.1279248148
0.6221205592 0.3969956338 0.1279248148
0.6235023737 0.3948218226 0.1279248148
0.6165097952 0.3874711990 0.1261230558
0.6094735861 0.3801743090 0.1243213043
0.6023938656 0.3729316294 0.1225195453
0.5952712297 0.3657427132 0.1207177788
0.5923249722 0.3611356318 0.1198169068
0.5935820341 0.3590657115 0.1198169068
0.5990686417 0.3594890237 0.1207177788
0.5960742235 0.3549130559 0.1198169068
0.6056928039 0.3579777777 0.1216186732
0.5984150171 0.3509519100 0.1198169068
0.5054563284 0.2857176661 0.0990966931
0.5970090628 0.3336129189 0.1180151477
0.5127493143 0.2827435732 0.0999975726
0.6134801507 0.3343017399 0.1207177788
0.6146434546 0.3321581483 0.1207177788
0.6462696791 0.3460349739 0.1270239353
0.6692779064 0.3551471829 0.1315283328
0.6661448479 0.3505499065 0.1306274533
0.6629876494 0.3459791839 0.1297265738
0.6598069072 0.3414344788 0.1288256943
0.6609948277 0.3391290903 0.1288256943
0.6621744633 0.3368199468 0.1288256943
0.6633462310 0.3345063329 0.1288256943
0.6645097136 0.3321889937 0.1288256943
0.6612426043 0.3277159035 0.1279248148
0.6623826027 0.3254055977 0.1279248148
0.6590767503 0.3209712505 0.1270239353
0.6601932049 0.3186685443 0.1270239353
0.6568491459 0.3142729104 0.1261230558
0.6534826756 0.3099041879 0.1252221763
0.6500937939 0.3055628240 0.1243213043
0.6466824412 0.3012492657 0.1234204248
0.6432490945 0.2969629169 0.1225195453
0.6397935748 0.2927045822 0.1216186732
0.6363163590 0.2884736657 0.1207177788
0.6373195052 0.2862506211 0.1207177788
0.6338058710 0.2820601463 0.1198169068
0.6302708983 0.2778973877 0.1189160272
0.6267145276 0.2737630904 0.1180151477
0.6231371760 0.2696567178 0.1171142682
0.6194924712 0.2656868994 0.1162133887
0.6203700900 0.2636311054 0.1162133887
0.6212866306 0.2614638805 0.1162133887
0.6267503500 0.2611488700 0.1171142682
0.6276581287 0.2589593828 0.1171142682
0.6285581589 0.2567670643 0.1171142682
0.6340247393 0.2563786209 0.1180151477
0.6303355098 0.2523724437 0.1171142682
0.6266259551 0.2483954728 0.1162133887
0.6228965521 0.2444471866 0.1153125092
0.6191471219 0.2405283153 0.1144116372
0.6199829578 0.2383655012 0.1144116372
0.6208112836 0.2361997813 0.1144116372
0.6216319203 0.2340314835 0.1144116372
0.6224451065 0.2318600267 0.1144116372
0.6232506037 0.2296860814 0.1144116372
0.6194142699 0.2258624285 0.1135107577
0.6155588627 0.2220683992 0.1126098782
0.6116845012 0.2183043361 0.1117089987
0.6077914834 0.2145697474 0.1108081192
0.6038798094 0.2108653337 0.1099072471
0.5952874422 0.2056250870 0.1081054732
0.5913338065 0.2019966394 0.1072046012
0.5873273611 0.1985011995 0.1063037217
0.5879824162 0.1965524256 0.1063037217
0.5839816928 0.1929968446 0.1054028422
0.5799633861 0.1894716173 0.1045019627
0.5806211829 0.1874461770 0.1045019627
0.5765732527 0.1839654595 0.1036010832
0.5725080967 0.1805156171 0.1027002111
0.5684260130 0.1770961136 0.1017993316
0.5643270612 0.1737073362 0.1008984521
0.5602114201 0.1703496128 0.0999975726
0.5608026385 0.1683929563 0.0999975726
0.5613870025 0.1664345413 0.0999975726
0.5619645715 0.1644738019 0.0999975726
0.5625352859 0.1625110656 0.0999975726
0.5583570600 0.1592422277 0.0990966931
0.5589095354 0.1572921127 0.0990966931
0.5547041297 0.1540691108 0.0981958136
0.5552385449 0.1521317810 0.0981958136
0.5510063767 0.1489545405 0.0972949266
0.5515229702 0.1470304132 0.0972949266
0.5520328283 0.1451042295 0.0972949266
0.5477634668 0.1419884264 0.0963940471
0.5482558012 0.1400753856 0.0963940471
0.5439607501 0.1370058656 0.0954931751
0.5396509767 0.1339683086 0.0945922956
0.5353267193 0.1309622526 0.0936914161
0.5309880376 0.1279883087 0.0927905366
0.5314316154 0.1261339188 0.0927905366
0.5270470381 0.1232988834 0.0918896571
0.5274530649 0.1215504333 0.0918896571
0.5278741121 0.1197087094 0.0918896571
0.5282887816 0.1178652421 0.0918896571
0.5238827467 0.1150146127 0.0909887776
0.5435518622 0.1171411127 0.0945922956
0.5294940472 0.1123265922 0.0918896571
0.5250583887 0.1095225215 0.0909887776
0.4668276012 -0.2555555701 0.1322556287
0.4829350114 -0.2663498521 0.1374421120
0.5074576735 -0.2818723917 0.1452218741
0.5403465033 -0.3022115529 0.1555948555
0.5646464229 -0.3181116581 0.1633746028
0.5930597782 -0.3365355730 0.1724509597
0.6045716405 -0.3455944061 0.1763408333
0.6076247692 -0.3499759734 0.1776374578
0.6063994169 -0.3520948291 0.1776374578
0.6051666737 -0.3542094231 0.1776374578
0.6081038713 -0.3587422073 0.1789340824
0.6110168099 -0.3632997572 0.1802307069
0.6139052510 -0.3678819835 0.1815273315
0.6209208965 -0.3749548793 0.1841205806
0.6278945208 -0.3820812106 0.1867138147
0.6306914091 -0.3867656589 0.1880104393
0.6334632039 -0.3914742768 0.1893070638
0.6320928335 -0.3936831057 0.1893070638
0.6307147741 -0.3958871067 0.1893070638
0.6293290257 -0.3980863094 0.1893070638
0.6279355884 -0.4002806544 0.1893070638
0.6224532723 -0.3998890519 0.1880104393
0.6210536361 -0.4020593464 0.1880104393
0.6196463704 -0.4042248130 0.1880104393
0.6547178030 -0.4299983680 0.1996800601
0.9078641534 -0.6074535251 0.2826640010
0.9097552299 -0.6132988930 0.2839606106
0.9037083387 -0.6136190891 0.2826640010
0.8936702013 -0.6111992598 0.2800707221
0.9154692888 -0.6306383014 0.2878504992
0.9689843059 -0.6721124053 0.3060032129
1.0341321230 -0.7222122550 0.3280458152
1.0316047668 -0.7258176804 0.3280458152
1.0290648937 -0.7294142246 0.3280458152
1.0186293125 -0.7274224162 0.3254525661
1.0003567934 -0.7197596431 0.3202660978
0.9978382587 -0.7232471108 0.3202660978
0.9992197156 -0.7295567393 0.3215627074
4.0404138565 -2.9517650604 1.3329292536
4.0300860405 -2.9658508301 1.3329292536
4.0235910416 -2.9827723503 1.3342258930
4.0170269012 -2.9996840954 1.3355225325
4.0103936195 -3.0165865421 1.3368190527
4.0036911964 -3.0334792137 1.3381156921
3.9930779934 -3.0474362373 1.3381156921
3.9862477779 -3.0642952919 1.3394123316
3.9755272865 -3.0781910419 1.3394123316
3.9647581577 -3.0920495987 1.3394123316
3.9539406300 -3.1058702469 1.3394123316
3.9430749416 -3.1196532249 1.3394123316
3.9321613312 -3.1333982944 1.3394123316
3.9249691963 -3.1501233578 1.3407090902
3.9139492512 -3.1638050079 1.3407090902
3.9066293240 -3.1804926395 1.3420056105
3.8923234940 -3.1903729439 1.3407090902
3.8854496479 -3.2063322067 1.3420056105
3.8742339611 -3.2198753357 1.3420056105
1.1540218592 -0.9776341319 0.3954702616
1.1985989809 -1.0295460224 0.4136229753
1.0961066484 -0.9487537146 0.3786141276
1.0745300055 -0.9367750883 0.3721310198
0.9948012829 -0.8738971353 0.3449019194
0.9844858050 -0.8709939122 0.3423086703
0.9959127903 -0.8872165680 0.3474951684
1.0072385073 -0.9035294652 0.3526816666
0.9609272480 -0.8683632612 0.3371221721
0.9471362829 -0.8620055318 0.3332323134
0.9155347943 -0.8393217921 0.3228593171
0.8876655102 -0.8196887970 0.3137829304
0.8563942313 -0.7965987921 0.3034099638
0.8288344741 -0.7765861154 0.2943336070
0.8014250994 -0.7563910484 0.2852572501
0.7776831985 -0.7393242121 0.2774774730
0.7610796094 -0.7287455797 0.2722909749
0.7410665751 -0.7147257328 0.2658078671
0.7246422172 -0.7039219141 0.2606213987
0.7049531937 -0.6895304918 0.2541382611
0.6819088459 -0.6716468334 0.2463585287
0.6588769555 -0.6537331343 0.2385787666
0.6600263715 -0.6594227552 0.2398753911
0.6508735418 -0.6549113393 0.2372821420
0.6383486986 -0.6469266415 0.2333922833
0.6258876324 -0.6388626695 0.2295024097
0.6101031303 -0.6272783279 0.2243159264
0.6045341492 -0.6259510517 0.2230192870
0.5922548771 -0.6176628470 0.2191294134
0.5833923221 -0.6127732992 0.2165361643
0.5712319613 -0.6043412089 0.2126463056
0.5591377020 -0.5958318114 0.2087564319
0.5404801369 -0.5802224874 0.2022733092
