0.1809006780 0.6838208437 -0.0551318973
0.1832863390 0.6831852794 -0.0551318973
0.1856701225 0.6825412512 -0.0551318973
0.1894131303 0.6866824627 -0.0555433333
0.1918090731 0.6860170364 -0.0555433333
0.1955979317 0.6901270151 -0.0559547655
0.1980055124 0.6894401312 -0.0559547655
0.2004110515 0.6887447238 -0.0559547655
0.2042590529 0.6928098798 -0.0563661940
0.2052143961 0.6873288155 -0.0559547655
0.2061340064 0.6818495989 -0.0555433333
0.2070175111 0.6763724685 -0.0551318973
0.2078656703 0.6708974838 -0.0547204651
0.2086778283 0.6654249430 -0.0543090329
0.2109994441 0.6646924615 -0.0543090329
0.2133185118 0.6639518142 -0.0543090329
0.2172124684 0.6679298878 -0.0547204651
0.2195427865 0.6671675444 -0.0547204651
0.2218701094 0.6663972139 -0.0547204651
0.2241950482 0.6656185985 -0.0547204651
0.2265172601 0.6648319364 -0.0547204651
0.2288363576 0.6640372872 -0.0547204651
0.2311530411 0.6632343531 -0.0547204651
0.2317737043 0.6577368379 -0.0543090329
0.2340683341 0.6569237709 -0.0543090329
0.2363601476 0.6561026573 -0.0543090329
0.2386487275 0.6552736759 -0.0543090329
0.2409347445 0.6544365883 -0.0543090329
0.2432174981 0.6535916924 -0.0543090329
0.2437069565 0.6480884552 -0.0538976006
0.2459678650 0.6472337842 -0.0538976006
0.2482254207 0.6463713050 -0.0538976006
0.2504802942 0.6455008388 -0.0538976006
0.2527318001 0.6446226239 -0.0538976006
0.2549805343 0.6437364817 -0.0538976006
0.2572261989 0.6428424716 -0.0538976006
0.2594683468 0.6419407129 -0.0538976006
0.2617076933 0.6410310268 -0.0538976006
0.2620077133 0.6355220675 -0.0534861684
0.2642246187 0.6346035600 -0.0534861684
0.2664383352 0.6336773038 -0.0534861684
0.2666646540 0.6281723380 -0.0530747361
0.2688558996 0.6272376180 -0.0530747361
0.2710435688 0.6262953877 -0.0530747361
0.2732281983 0.6253454089 -0.0530747361
0.2754095197 0.6243878007 -0.0530747361
0.2775871754 0.6234227419 -0.0530747361
0.2776826620 0.6179213524 -0.0526633039
0.2798377573 0.6169483662 -0.0526633039
0.2798790634 0.6114537716 -0.0522518754
0.2820118666 0.6104730368 -0.0522518754
0.2841408849 0.6094849706 -0.0522518754
0.2862668037 0.6084893942 -0.0522518754
0.2883889079 0.6074864864 -0.0522518754
0.2905077636 0.6064760685 -0.0522518754
0.2926231325 0.6054582596 -0.0522518754
0.2947345972 0.6044332385 -0.0522518754
0.2968427837 0.6034006476 -0.0522518754
0.2989470661 0.6023609042 -0.0522518754
0.3010480106 0.6013136506 -0.0522518754
0.3031452596 0.6002590656 -0.0522518754
0.3052385151 0.5991973281 -0.0522518754
0.3073283732 0.5981281400 -0.0522518754
0.3094142079 0.5970517993 -0.0522518754
0.3114965260 0.5959680676 -0.0522518754
0.3135750592 0.5948770642 -0.0522518754
0.3156494796 0.5937789083 -0.0522518754
0.3177203536 0.5926734209 -0.0522518754
0.3220884204 0.5959811211 -0.0526633039
0.3240630031 0.5949097276 -0.0526633039
0.3261374831 0.5937750340 -0.0526633039
0.3282082677 0.5926329494 -0.0526633039
0.3302750587 0.5914835930 -0.0526633039
0.3298580647 0.5860048532 -0.0522518754
0.3319017291 0.5848497748 -0.0522518754
0.3339410424 0.5836877227 -0.0522518754
0.3359765708 0.5825184584 -0.0522518754
0.3380080163 0.5813420415 -0.0522518754
0.3400350213 0.5801587701 -0.0522518754
0.3446276486 0.5832377076 -0.0526633039
0.3414926231 0.5735102892 -0.0518404432
0.3149015605 0.5255485177 -0.0473146886
0.3115062416 0.5159613490 -0.0464918241
0.3239115775 0.4480547011 -0.0423775017
0.3314993680 0.4548611641 -0.0432003662
0.3300972283 0.4497133493 -0.0427889340
0.3706865311 0.5002663136 -0.0481375530
0.3723434806 0.4990343153 -0.0481375530
0.3951920569 0.5254996419 -0.0510175787
0.3939820528 0.5201701522 -0.0506061465
0.3927399814 0.5148553252 -0.0501947142
0.3945346475 0.5134813786 -0.0501947142
0.3932417631 0.5081861019 -0.0497832783
0.3920043707 0.5028378963 -0.0493718460
0.3937573433 0.5014663935 -0.0493718460
0.3922943771 0.4962754846 -0.0489604138
0.3941105902 0.4948343635 -0.0489604138
0.3958355784 0.4934555888 -0.0489604138
0.4006340206 0.4959896505 -0.0493718460
0.3832968771 0.4715579748 -0.0469032563
0.3721765578 0.4549079537 -0.0452575311
0.3545358479 0.4307094514 -0.0427889340
0.3463842273 0.4180544913 -0.0415546410
0.3479140699 0.4167821705 -0.0415546410
0.3492942750 0.4156261384 -0.0415546410
0.3870735168 0.3735506535 -0.0411432087
0.3883749843 0.3721973300 -0.0411432087
0.3922512829 0.3681099415 -0.0411432087
0.4385735691 0.3447601199 -0.0427889340
0.4278999865 0.3341454268 -0.0415546410
0.4330909252 0.3355876505 -0.0419660732
0.4540969431 0.3491474092 -0.0440232307
0.4427798986 0.3054700494 -0.0411432087
0.4479832649 0.3066962361 -0.0415546410
0.4614997208 0.3134075701 -0.0427889340
0.4459543228 0.3008167744 -0.0411432087
0.4678450823 0.3129081130 -0.0432003662
0.4731127322 0.3139884472 -0.0436117984
0.4825810492 0.3177368343 -0.0444346629
0.4920814037 0.3214226663 -0.0452575311
0.4973505139 0.3224613369 -0.0456689633
0.5026318431 0.3234685659 -0.0460803919
0.5079818368 0.3243557811 -0.0464918241
0.5048778057 0.3199517131 -0.0460803919
0.5272033215 0.3312575817 -0.0481375530
0.5453622937 0.3398119211 -0.0497832783
0.5678478479 0.3508276939 -0.0518404432
0.5861468911 0.3591213226 -0.0534861684
0.6130676866 0.3724001050 -0.0559547655
0.6100764275 0.3677184582 -0.0555433333
0.6070601344 0.3630619347 -0.0551318973
0.6126288772 0.3634501398 -0.0555433333
0.6095799208 0.3588151038 -0.0551318973
0.6281183362 0.3666028082 -0.0567776263
0.5990770459 0.3471576869 -0.0538976006
0.6089643836 0.3499627411 -0.0547204651
0.6145304441 0.3502688706 -0.0551318973
0.5717820525 0.2931850255 -0.0497832783
0.6040294170 0.3067294061 -0.0526633039
0.6408464909 0.3222570419 -0.0559547655
0.6464439631 0.3222071230 -0.0563661940
0.6430807710 0.3177750409 -0.0559547655
0.6441860199 0.3155285120 -0.0559547655
0.6452835202 0.3132778406 -0.0559547655
0.6463730931 0.3110236526 -0.0559547655
0.6429408789 0.3066547215 -0.0555433333
0.6440074444 0.3044084311 -0.0555433333
0.6405373812 0.3000796735 -0.0551318973
0.6415810585 0.2978418171 -0.0551318973
0.6380737424 0.2935532331 -0.0547204651
0.6345444918 0.2892924845 -0.0543090329
0.6309933066 0.2850599587 -0.0538976006
0.6319844127 0.2828558385 -0.0538976006
0.6329679489 0.2806479633 -0.0538976006
0.6339436769 0.2784369588 -0.0538976006
0.6349117756 0.2762222588 -0.0538976006
0.6358721852 0.2740041912 -0.0538976006
0.6368246675 0.2717831135 -0.0538976006
0.6331645250 0.2676546872 -0.0534861684
0.6340948343 0.2654430866 -0.0534861684
0.6350176334 0.2632279396 -0.0534861684
0.6312626004 0.2592644691 -0.0530747361
0.6274883747 0.2553288341 -0.0526633039
0.6237387657 0.2513124645 -0.0522518754
0.6199689507 0.2473250777 -0.0518404432
0.6161789894 0.2433670908 -0.0514290109
0.6123688817 0.2394389212 -0.0510175787
0.6085390449 0.2355400175 -0.0506061465
0.6093574762 0.2334145606 -0.0506061465
0.6101685762 0.2312859744 -0.0506061465
0.6109722257 0.2291545421 -0.0506061465
0.6117683053 0.2270206511 -0.0506061465
0.6078651547 0.2232055515 -0.0501947142
0.6039426327 0.2194207609 -0.0497832783
0.6000013351 0.2156658471 -0.0493718460
0.6007505655 0.2135699987 -0.0493718460
0.5967773795 0.2098594308 -0.0489604138
0.5975063443 0.2077748924 -0.0489604138
0.5935018063 0.2041086107 -0.0485489853
0.5894791484 0.2004725784 -0.0481375530
0.5854383707 0.1968671083 -0.0477261208
0.5813457966 0.1933941543 -0.0473146886
0.5819839239 0.1914652586 -0.0473146886
0.5826487541 0.1894324869 -0.0473146886
0.5833064914 0.1873973757 -0.0473146886
0.5839570165 0.1853603125 -0.0473146886
0.5798326731 0.1818720847 -0.0469032563
0.5756911039 0.1784152240 -0.0464918241
0.5715325475 0.1749892384 -0.0460803919
0.5721399188 0.1729930192 -0.0460803919
0.5679526925 0.1696131378 -0.0456689633
0.5685412884 0.1676294655 -0.0456689633
0.5643258095 0.1642956138 -0.0452575311
0.5600940585 0.1609929800 -0.0448460989
0.5606526732 0.1590367854 -0.0448460989
0.5612043142 0.1570789516 -0.0448460989
0.5617492795 0.1551189125 -0.0448460989
0.5622872710 0.1531572640 -0.0448460989
0.5676428080 0.1524411291 -0.0452575311
0.5681715012 0.1504586339 -0.0452575311
0.5638602972 0.1472606659 -0.0448460989
0.5643709302 0.1452914178 -0.0448460989
0.5600332618 0.1421404779 -0.0444346629
0.5605260134 0.1401846260 -0.0444346629
0.5561625957 0.1370807141 -0.0440232307
0.5566376448 0.1351386756 -0.0440232307
0.5571060181 0.1331947148 -0.0440232307
0.5575446486 0.1313465238 -0.0440232307
0.5531126261 0.1284166723 -0.0436117984
0.5535574555 0.1264853477 -0.0436117984
0.5539956093 0.1245521754 -0.0436117984
0.5544270277 0.1226177663 -0.0436117984
0.5499724746 0.1196694151 -0.0432003662
0.5503869057 0.1177488044 -0.0432003662
0.5459084511 0.1148489416 -0.0427889340
0.5414165258 0.1119814962 -0.0423775017
0.5418040752 0.1100910753 -0.0423775017
0.5274968743 0.1054183766 -0.0411432087
0.5278616548 0.1035763174 -0.0411432087
0.5331224203 0.1026259586 -0.0415546410
0.5338258743 0.0989016294 -0.0415546410
0.5341678262 0.0970375314 -0.0415546410
0.5345033407 0.0951722339 -0.0415546410
0.5397495031 0.0941130593 -0.0419660732
0.5400747657 0.0922282934 -0.0419660732
0.5354706049 0.0895700231 -0.0415546410
0.5357800126 0.0877002403 -0.0415546410
0.5335416794 0.0685514063 -0.0411432087
0.5436788797 0.0678238571 -0.0419660732
0.5488649011 0.0664758012 -0.0423775017
0.5350572467 0.0554954112 -0.0411432087
0.5352476835 0.0536275245 -0.0411432087
0.4760935605 -0.2635994256 -0.0205306392
0.5190376043 -0.2891668677 -0.0225633755
0.5224033594 -0.2933828831 -0.0227666479
0.5432255864 -0.3073109984 -0.0237830169
0.5726795793 -0.3262610137 -0.0252059326
0.6064210534 -0.3477660120 -0.0268321205
0.6096096635 -0.3522404730 -0.0270353947
0.6170495152 -0.3593273759 -0.0274419431
0.6201193333 -0.3639747500 -0.0276452173
0.6231641769 -0.3686479330 -0.0278484896
0.6261838675 -0.3733467460 -0.0280517638
0.6291782856 -0.3780710995 -0.0282550361
0.6278547645 -0.3802650571 -0.0282550361
0.6308072209 -0.3850251436 -0.0284583103
0.6294593811 -0.3872247338 -0.0284583103
0.6323694587 -0.3920202851 -0.0286615845
0.6309971809 -0.3942252696 -0.0286615845
0.6296172142 -0.3964254558 -0.0286615845
0.6282296181 -0.3986208141 -0.0286615845
0.6268343329 -0.4008112848 -0.0286615845
0.6254314184 -0.4029969275 -0.0286615845
0.6324412823 -0.4105564654 -0.0290681310
0.6478073597 -0.4235780239 -0.0298812240
0.6714727283 -0.4421492219 -0.0311008673
0.7619248033 -0.5046243668 -0.0355728902
0.8060531616 -0.5375083089 -0.0378088988
0.8166598082 -0.5486061573 -0.0384187177
0.8811869025 -0.5958855748 -0.0416710973
3.8581416607 -2.6237516403 -0.1882314086
3.8035886288 -2.6061947346 -0.1859953851
3.8026978970 -2.6251225471 -0.1864019334
3.7894062996 -2.6355328560 -0.1861986667
3.7760884762 -2.6458823681 -0.1859953851
3.7709145546 -2.6619236469 -0.1861986667
3.7615997791 -2.6750700474 -0.1861986667
3.7522392273 -2.6881842613 -0.1861986667
3.7468874454 -2.7041845322 -0.1864019334
3.7374250889 -2.7172472477 -0.1864019334
3.7279174328 -2.7302768230 -0.1864019334
3.7183642387 -2.7432727814 -0.1864019334
3.7087657452 -2.7562355995 -0.1864019334
3.6951191425 -2.7661757469 -0.1861986667
3.6854407787 -2.7790572643 -0.1861986667
3.6757175922 -2.7919049263 -0.1861986667
3.6659498215 -2.8047184944 -0.1861986667
3.6561372280 -2.8174979687 -0.1861986667
3.6462798119 -2.8302431107 -0.1861986667
3.6324386597 -2.8398814201 -0.1859953851
3.6225035191 -2.8525438309 -0.1859953851
3.6086063385 -2.8620712757 -0.1857921034
3.5946869850 -2.8715372086 -0.1855888367
3.5885374546 -2.8871941566 -0.1857921034
3.5828294754 -2.9022183418 -0.1859953851
3.5731854439 -2.9140837193 -0.1859953851
3.5629916191 -2.9265387058 -0.1859953851
3.5951406956 -2.9739356041 -0.1882314086
1.2259027958 -1.0333141088 -0.0636246502
1.2186590433 -1.0418473482 -0.0636246502
1.1770430803 -1.0136294365 -0.0615919158
1.1734976768 -1.0177319050 -0.0615919158
1.1510658264 -1.0054571629 -0.0605755486
1.0986303091 -0.9667492509 -0.0579329878
1.0614856482 -0.9408851266 -0.0561035275
1.0170553923 -0.9081490636 -0.0538675152
0.9840523005 -0.8850908875 -0.0522413254
0.9623731375 -0.8718287945 -0.0512249582
0.9370936751 -0.8550750017 -0.0500053167
0.9156364202 -0.8415197134 -0.0489889458
0.8906040192 -0.8244482279 -0.0477693044
0.8657022119 -0.8072125316 -0.0465496667
0.8445897102 -0.7932159901 -0.0455332957
0.8235856891 -0.7790820599 -0.0445169285
0.8028243184 -0.7646711469 -0.0435005575
0.7785445452 -0.7466918826 -0.0422809161
0.7759333253 -0.7494049668 -0.0422809161
0.7625151873 -0.7417145967 -0.0416710973
0.7599214911 -0.7443717718 -0.0416710973
0.7430189252 -0.7330606580 -0.0408580042
0.7155166864 -0.7111338377 -0.0394350849
0.6917273402 -0.6925390363 -0.0382154472
0.6680767536 -0.6737870574 -0.0369958021
0.6445658207 -0.6548786759 -0.0357761607
0.6036280394 -0.6180562377 -0.0335401520
0.6084690094 -0.6272873282 -0.0339466967
0.6027870774 -0.6258313656 -0.0337434262
0.5971227884 -0.6243433952 -0.0335401520
0.5880127549 -0.6192231774 -0.0331336036
0.5823967457 -0.6176595092 -0.0329303294
0.5767989159 -0.6160641909 -0.0327270590
0.5712192655 -0.6144374013 -0.0325237811
0.5656580925 -0.6127792001 -0.0323205069
0.5601154566 -0.6110897064 -0.0321172364
0.5512042642 -0.6056969166 -0.0317106880
0.5355886221 -0.5928815603 -0.0308975950
0.5200692415 -0.5799647570 -0.0300845001
0.5013962984 -0.5631521344 -0.0290681310
0.4928520024 -0.5573759079 -0.0286615845
0.4909033775 -0.5590928793 -0.0286615845
0.4856377840 -0.5570619702 -0.0284583103
0.4869882762 -0.5625063777 -0.0286615845
0.5211547613 -0.6056082845 -0.0308975950
0.5157659650 -0.6036481857 -0.0306943208
3.4224998951 -4.0143275261 -0.2130307704
3.4084668159 -4.0262494087 -0.2130307704
3.3943915367 -4.0381226540 -0.2130307704
3.3866858482 -4.0576109886 -0.2134373337
3.3756935596 -4.0732517242 -0.2136406153
3.3646328449 -4.0888643265 -0.2138438672
3.3535046577 -4.1044492722 -0.2140471488
3.3391571045 -4.1161303520 -0.2140471488
3.3279066086 -4.1316490173 -0.2142504305
3.3165884018 -4.1471385956 -0.2144536972
3.3052024841 -4.1625995636 -0.2146569639
3.2968466282 -4.1819515228 -0.2150635123
3.2853121758 -4.1973652840 -0.2152667940
3.2737097740 -4.2127490044 -0.2154700607
3.2620403767 -4.2281031609 -0.2156733274
3.2503037453 -4.2434272766 -0.2158766091
3.2354717255 -4.2547469139 -0.2158766091
3.2326571941 -4.2819514275 -0.2166897058
3.2124376297 -4.2846593857 -0.2162831575
3.2011995316 -4.2992925644 -0.2164864242
3.0850646496 -4.1739511490 -0.2095751166
3.0586373806 -4.1685953140 -0.2087620348
3.1736767292 -4.3567895889 -0.2177060843
3.1584494114 -4.3678412437 -0.2177060843
3.1519355774 -4.3910064697 -0.2183158994
3.1336855888 -4.3979163170 -0.2181126177
2.7349336147 -3.8966956139 -0.1920935959
2.7413382530 -3.9348897934 -0.1935165077
2.7332787514 -3.9526467323 -0.1939230561
2.7166328430 -3.9580476284 -0.1937197894
2.7028002739 -3.9675061703 -0.1937197894
2.6917376518 -3.9810521603 -0.1939230561
2.6778247356 -3.9904239178 -0.1939230561
2.6666533947 -4.0039019585 -0.1941263378
2.6554203033 -4.0173501968 -0.1943296045
2.6413810253 -4.0265946388 -0.1943296045
2.6300399303 -4.0399742126 -0.1945328712
2.6159217358 -4.0491299629 -0.1945328712
2.6044728756 -4.0624394417 -0.1947361529
2.5909872055 -4.0710539818 -0.1947361529
2.5774726868 -4.0796236992 -0.1947361529
2.5632166862 -4.0885958672 -0.1947361529
2.5515727997 -4.1017570496 -0.1949394345
2.5372395515 -4.1106390953 -0.1949394345
2.5254890919 -4.1237277985 -0.1951426864
2.5110790730 -4.1325182915 -0.1951426864
2.4992232323 -4.1455335617 -0.1953459680
2.4873065948 -4.1585168839 -0.1955492496
2.4753298759 -4.1714677811 -0.1957525313
2.4632928371 -4.1843848228 -0.1959557831
2.4511959553 -4.1972694397 -0.1961590648
2.4415485859 -4.2144398689 -0.1965656132
2.4293165207 -4.2272653580 -0.1967688799
2.4170248508 -4.2400569916 -0.1969721615
2.4046733379 -4.2528142929 -0.1971754283
2.3922622204 -4.2655372620 -0.1973787099
2.3773584366 -4.2738614082 -0.1973787099
2.3648433685 -4.2865052223 -0.1975819767
2.1080336571 -3.8860154152 -0.1782709807
2.0114250183 -3.7394666672 -0.1711564213
2.0077874660 -3.7640845776 -0.1719695032
2.3047947884 -4.3925676346 -0.2002245337
2.2848265171 -4.3917274475 -0.1998180002
2.2763681412 -4.4129881859 -0.2004278153
2.6100392342 -5.1457581520 -0.2331548631
2.5988073349 -5.1682214737 -0.2337646931
2.5896830559 -5.1951375008 -0.2345777899
2.5635685921 -5.1857910156 -0.2337646931
2.4975831509 -5.1402406693 -0.2309188545
2.5382688046 -5.2704014778 -0.2364072502
2.5306377411 -5.3017616272 -0.2374236137
2.4093701839 -5.0938878059 -0.2276664823
2.4170713425 -5.1565256119 -0.2301057577
2.4813072681 -5.3415584564 -0.2380334437
2.4835777283 -5.3955492973 -0.2400661707
2.4626517296 -5.3996424675 -0.2398629040
2.4437885284 -5.4082055092 -0.2398629040
2.4351227283 -5.4394927025 -0.2408792675
2.4201800823 -5.4570894241 -0.2412858158
2.4091708660 -5.4837927818 -0.2420989126
2.3940095901 -5.5013265610 -0.2425054461
2.3807373047 -5.5234079361 -0.2431152910
2.3673391342 -5.5454635620 -0.2437251061
2.3479676247 -5.5536932945 -0.2437251061
2.2995636463 -5.4927577972 -0.2406760007
2.2746238708 -5.4869112968 -0.2400661707
2.2402467728 -5.4578585625 -0.2384399772
2.2607707977 -5.5628023148 -0.2427087277
2.2628805637 -5.6212286949 -0.2449447513
2.2469518185 -5.6383719444 -0.2453512847
2.2336177826 -5.6651535034 -0.2461643815
2.2229316235 -5.6961774826 -0.2471807599
1.9825117588 -5.2373189926 -0.2262435704
1.9571899176 -5.2255005836 -0.2254304737
2.1141378880 -5.8278737068 -0.2506363988
2.0988566875 -5.8493204117 -0.2512462139
2.0834505558 -5.8707313538 -0.2518560290
2.0679214001 -5.8921055794 -0.2524658740
2.0489838123 -5.9040060043 -0.2526691258
1.6955373287 -5.0006217957 -0.2132340521
1.6748857498 -4.9970393181 -0.2128275037
1.6605852842 -5.0123367310 -0.2132340521
1.6461982727 -5.0275955200 -0.2136406153
1.6301810741 -5.0380625725 -0.2138438672
1.6141117811 -5.0484790802 -0.2140471488
1.5979888439 -5.0588455200 -0.2142504305
1.5818138123 -5.0691599846 -0.2144536972
1.5685392618 -5.0889687538 -0.2150635123
1.5551449060 -5.1087465286 -0.2156733274
1.5416321754 -5.1284923553 -0.2162831575
1.5279999971 -5.1482062340 -0.2168929875
1.5142494440 -5.1678872108 -0.2175028026
1.5017729998 -5.1923322678 -0.2183158994
1.4877674580 -5.2119503021 -0.2189257145
1.4750032425 -5.2363409996 -0.2197387964
1.4607436657 -5.2558946609 -0.2203486413
1.4476919174 -5.2802286148 -0.2211617380
1.4344879389 -5.3045349121 -0.2219748199
1.4198390245 -5.3239874840 -0.2225846350
1.4063478708 -5.3482322693 -0.2233977318
1.3927038908 -5.3724479675 -0.2242108285
1.3789086342 -5.3966331482 -0.2250239253
1.3649615049 -5.4207873344 -0.2258370221
1.3508616686 -5.4449095726 -0.2266501039
1.3366107941 -5.4689993858 -0.2274632007
1.3210334778 -5.4881992340 -0.2280730158
1.3064960241 -5.5122175217 -0.2288861126
1.2927727699 -5.5359754562 -0.2296992242
1.2789069414 -5.5597023964 -0.2305123210
1.2639224529 -5.5836191177 -0.2313254178
1.2509684563 -5.6172485352 -0.2325450480
1.2356479168 -5.6410975456 -0.2333581448
1.2201751471 -5.6649079323 -0.2341712266
1.2014334202 -5.6740193367 -0.2343745083
1.3940424919 -6.8127021790 -0.2813307345
1.3781602383 -6.8567037582 -0.2829569280
1.3590729237 -6.8859753609 -0.2839732766
1.3264415264 -6.8465423584 -0.2821438313
1.3025341034 -6.8511309624 -0.2821438313
1.2859704494 -6.8949193954 -0.2837700248
1.2799493074 -6.9976387024 -0.2878354788
1.2590568066 -7.0217313766 -0.2886485755
1.1789625883 -6.7112150192 -0.2756390572
1.0448720455 -6.0753231049 -0.2492134720
1.1312469244 -6.7143559456 -0.2754357755
1.1780490875 -7.1421270370 -0.2929173112
1.1451145411 -7.0968813896 -0.2908845842
1.1062523127 -7.0120196342 -0.2872256637
1.0883554220 -7.0502066612 -0.2886485755
1.0679683685 -7.0735344887 -0.2894616723
1.0462005138 -7.0969867706 -0.2902747691
1.0242819786 -7.1203727722 -0.2910878658
0.9987226129 -7.1189579964 -0.2908845842
0.9731864333 -7.1174511909 -0.2906813025
0.9470087886 -7.1109023094 -0.2902747691
0.9331644177 -7.1983809471 -0.2937304080
0.9036308527 -7.1669015884 -0.2923074961
0.8406983614 -6.8625969887 -0.2797045410
0.8185210824 -6.8803710938 -0.2803143561
0.8014202714 -6.9427356720 -0.2827536464
0.7799785137 -6.9703130722 -0.2837700248
0.7583539486 -6.9978246689 -0.2847863734
0.7365458608 -7.0252704620 -0.2858027518
0.7145562768 -7.0526490211 -0.2868191004
0.6928737760 -7.0849313736 -0.2880387604
0.6705026627 -7.1121735573 -0.2890551090
0.6484051943 -7.1443214417 -0.2902747691
0.6256524920 -7.1714243889 -0.2912911475
0.6027193666 -7.1984553337 -0.2923074961
0.5800074339 -7.2303924561 -0.2935271263
0.5570808053 -7.2622590065 -0.2947467864
0.5339387655 -7.2940526009 -0.2959664166
0.5105805397 -7.3257732391 -0.2971860766
0.4870083332 -7.3574185371 -0.2984057069
0.4622715116 -7.3740315437 -0.2990155518
0.4383223057 -7.4055218697 -0.3002351820
0.4183811843 -7.5117530823 -0.3045039177
0.4190928638 -8.0220336914 -0.3252378404
0.4019416273 -8.2429981232 -0.3341818750
0.3685802817 -8.1445388794 -0.3301163912
0.2814749181 -6.7631649971 -0.2738095820
0.2566993535 -6.7341537476 -0.2725899518
0.2646908760 -7.6237149239 -0.3087726533
0.2553080916 -8.1638708115 -0.3307262361
0.2268086821 -8.1647129059 -0.3307262361
0.1979335248 -8.1504716873 -0.3301163912
0.1691605598 -8.1361284256 -0.3295065761
0.1403992921 -8.1166896820 -0.3286934793
0.1117768511 -8.0971479416 -0.3278803825
0.0067439238 -3.0570867062 -0.1227772832
-0.0257861074 -3.1369216442 -0.1260296553
-0.0370338820 -3.1667861938 -0.1272493005
-0.0482890531 -3.1816241741 -0.1278591305
-0.0598178208 -3.2064118385 -0.1288754940
-0.0716218129 -3.2361524105 -0.1300951242
-0.0835151374 -3.2608549595 -0.1311115026
-0.0955813602 -3.2855136395 -0.1321278661
-0.1073578075 -3.2951469421 -0.1325344145
-0.1192030981 -3.3047378063 -0.1329409629
-0.1069443077 -2.4502627850 -0.0981811732
-0.1154965386 -2.4498744011 -0.0981811732
-0.1233795136 -2.4444878101 -0.0979778916
-0.1314848363 -2.4440653324 -0.0979778916
-0.1397410929 -2.4386031628 -0.0977746248
-0.1479604840 -2.4331130981 -0.0975713432
-0.1564529240 -2.4325819016 -0.0975713432
-0.1646163911 -2.4270358086 -0.0973680764
-0.1727430522 -2.4214622974 -0.0971648023
-0.1808331460 -2.4158618450 -0.0969615281
-0.1888859123 -2.4102344513 -0.0967582539
-0.1972982287 -2.4095604420 -0.0967582539
-0.2052941471 -2.4038784504 -0.0965549797
-0.2132527977 -2.3981697559 -0.0963517055
-0.2211744189 -2.3924353123 -0.0961484388
-0.2285924852 -2.3817005157 -0.0957418904
-0.2364217788 -2.3759152889 -0.0955386087
-0.2437126487 -2.3651342392 -0.0951320678
-0.2509311438 -2.3543312550 -0.0947255194
-0.2586127520 -2.3484740257 -0.0945222452
-0.2657036781 -2.3376264572 -0.0941157043
-0.2732921839 -2.3317213058 -0.0939124227
-0.2808424234 -2.3257920742 -0.0937091559
-0.2883546054 -2.3198382854 -0.0935058743
-0.2958289385 -2.3138604164 -0.0933026001
-0.3032647967 -2.3078591824 -0.0930993333
-0.3113190532 -2.3067865372 -0.0930993333
-0.3186955154 -2.3007354736 -0.0928960517
-0.3260335624 -2.2946612835 -0.0926927850
-0.3333333433 -2.2885634899 -0.0924895033
-0.3405942917 -2.2824432850 -0.0922862366
-0.3485596180 -2.2812404633 -0.0922862366
-0.3557603955 -2.2750720978 -0.0920829549
-0.3636995852 -2.2738163471 -0.0920829549
-0.3708402216 -2.2676007748 -0.0918796882
-0.3779415786 -2.2613630295 -0.0916764140
-0.3858330846 -2.2600297928 -0.0916764140
-0.3928735554 -2.2537457943 -0.0914731398
-0.4007380903 -2.2523605824 -0.0914731398
-0.4077176154 -2.2460303307 -0.0912698656
-0.4155551195 -2.2445933819 -0.0912698656
-0.4224731624 -2.2382178307 -0.0910665914
-0.4302833080 -2.2367293835 -0.0910665914
-0.4371392131 -2.2303090096 -0.0908633173
-0.4439558983 -2.2238678932 -0.0906600505
-0.4507326186 -2.2174065113 -0.0904567689
-0.4574699700 -2.2109248638 -0.0902535021
-0.4641672373 -2.2044234276 -0.0900502205
-0.4708247781 -2.1979022026 -0.0898469537
-0.4774426520 -2.1913611889 -0.0896436796
-0.4850889146 -2.1896812916 -0.0896436796
-0.4916440248 -2.1830983162 -0.0894404054
-0.4981587529 -2.1764960289 -0.0892371312
-0.5057529807 -2.1747438908 -0.0892371312
-0.5122048259 -2.1681005955 -0.0890338570
-0.5197696686 -2.1662993431 -0.0890338570
-0.5261579156 -2.1596148014 -0.0888305828
-0.5336930752 -2.1577651501 -0.0888305828
-0.5400173664 -2.1510405540 -0.0886273161
-0.5475227833 -2.1491425037 -0.0886273161
-0.5537829995 -2.1423780918 -0.0884240344
-0.5600029826 -2.1355962753 -0.0882207602
-0.5661821365 -2.1287972927 -0.0880174860
-0.5736094713 -2.1268081665 -0.0880174860
-0.5797244310 -2.1199705601 -0.0878142118
-0.5857983828 -2.1131165028 -0.0876109451
-0.5918318629 -2.1062455177 -0.0874076635
-0.5991802812 -2.1041669846 -0.0874076635
-0.6051486135 -2.0972590446 -0.0872043967
-0.6124659181 -2.0951340199 -0.0872043967
-0.6197754741 -2.0929832458 -0.0872043967
-0.6270776987 -2.0908071995 -0.0872043967
-0.6343720555 -2.0886054039 -0.0872043967
-0.6416586637 -2.0863783360 -0.0872043967
-0.6489377618 -2.0841257572 -0.0872043967
-0.6562086344 -2.0818479061 -0.0872043967
-0.6634718180 -2.0795445442 -0.0872043967
-0.6707266569 -2.0772161484 -0.0872043967
-0.6779732704 -2.0748622417 -0.0872043967
-0.6867681146 -2.0772299767 -0.0874076635
-0.6940147281 -2.0748202801 -0.0874076635
-0.7012531161 -2.0723848343 -0.0874076635
-0.7084827423 -2.0699245930 -0.0874076635
-0.7254379988 -2.0957896709 -0.0886273161
-0.7343882322 -2.0979638100 -0.0888305828
-0.7450175285 -2.1048150063 -0.0892371312
-0.8926290870 -2.4711754322 -0.1052957475
-0.9221354127 -2.5242400169 -0.1077350304
-0.9429880381 -2.5538363457 -0.1091579497
-0.9124604464 -2.3677940369 -0.1016368270
-0.9279304743 -2.3832318783 -0.1024499163
-0.8454533219 -2.1257770061 -0.0914731398
-0.8195457458 -2.0392889977 -0.0878142118
-0.8154544830 -2.0086135864 -0.0865945667
-0.8224610090 -2.0057549477 -0.0865945667
-0.8275576234 -1.9982513189 -0.0863913000
-0.8345279098 -1.9953503609 -0.0863913000
-0.8414878249 -1.9924252033 -0.0863913000
-0.8464893699 -1.9848752022 -0.0861880258
-0.8534128666 -1.9819083214 -0.0861880258
-0.8583456874 -1.9743306637 -0.0859847516
-0.8652322888 -1.9713224173 -0.0859847516
-0.8700960279 -1.9637173414 -0.0857814774
-0.8769452572 -1.9606682062 -0.0857814774
-0.8817402124 -1.9530365467 -0.0855782107
-0.8885520697 -1.9499468803 -0.0855782107
-0.8953534365 -1.9468333721 -0.0855782107
-0.9042350650 -1.9482330084 -0.0857814774
-0.9110300541 -1.9450647831 -0.0857814774
-0.9156910777 -1.9373506308 -0.0855782107
-0.9181700945 -1.9251129627 -0.0851716623
-0.9227297902 -1.9173886776 -0.0849683806
-0.9272466302 -1.9096565247 -0.0847651139
-0.9295345545 -1.8974238634 -0.0843585655
-0.9361523390 -1.8941675425 -0.0843585655
-0.9427583814 -1.8908883333 -0.0843585655
-0.9493532181 -1.8875858784 -0.0843585655
-0.9536875486 -1.8797992468 -0.0841552913
-0.9602434039 -1.8764588833 -0.0841552913
-0.9667877555 -1.8730955124 -0.0841552913
-0.9733200669 -1.8697093725 -0.0841552913
-0.9798408151 -1.8663003445 -0.0841552913
-0.9860241413 -1.8630409241 -0.0841552913
-0.9925214648 -1.8595876694 -0.0841552913
-0.9993305206 -1.8559373617 -0.0841552913
-1.0058027506 -1.8524378538 -0.0841552913
-1.0122629404 -1.8489155769 -0.0841552913
-1.0187106133 -1.8453708887 -0.0841552913
-1.0227277279 -1.8374322653 -0.0839520171
-1.0291354656 -1.8338509798 -0.0839520171
-1.0352109671 -1.8304282427 -0.0839520171
-1.0388127565 -1.8226382732 -0.0837487429
-1.0454860926 -1.8188185692 -0.0837487429
-1.0496512651 -1.8106459379 -0.0835454687
-1.0559653044 -1.8069708347 -0.0835454687
-1.0619515181 -1.8034592867 -0.0835454687
-1.0657017231 -1.7954384089 -0.0833421946
-1.0722751617 -1.7915203571 -0.0833421946
-1.0785220861 -1.7877665758 -0.0833421946
-1.0821719170 -1.7797151804 -0.0831389129
-1.0883775949 -1.7759269476 -0.0831389129
-1.0945701599 -1.7721168995 -0.0831389129
-1.0928626060 -1.7555407286 -0.0825290978
-1.0963400602 -1.7474762201 -0.0823258236
-1.1130673885 -1.7605576515 -0.0831389129
-1.8806459904 -2.9360706806 -0.1402588040
-1.8908832073 -2.9294881821 -0.1402588040
-1.9038146734 -2.9270622730 -0.1404620856
-1.9112887383 -2.9162158966 -0.1402588040
-1.9242029190 -2.9136998653 -0.1404620856
-2.6329047680 -3.9603495598 -0.1918903142
-2.7022237778 -4.0342130661 -0.1959557831
-2.7330293655 -4.0496215820 -0.1971754283
-3.6249532700 -5.3341341019 -0.2608000934
-3.5871725082 -5.2389559746 -0.2567346096
-3.7763338089 -5.3140959740 -0.2636459172
-3.3742318153 -4.6433486938 -0.2319352329
-3.3756844997 -4.6113715172 -0.2309188545
-3.3828771114 -4.5874896049 -0.2303090394
-3.3929197788 -4.5676259995 -0.2299024910
-3.3968863487 -4.5397429466 -0.2290893942
-3.3526499271 -4.4480080605 -0.2250239253
-3.2565264702 -4.2889442444 -0.2175028026
-3.2593541145 -4.2616653442 -0.2166897058
-3.3320605755 -4.3255171776 -0.2205518931
-3.3410220146 -4.3059597015 -0.2201453596
-3.3683214188 -4.3100295067 -0.2209584564
-3.3802592754 -4.2943167686 -0.2207551748
-3.3952295780 -4.2824907303 -0.2207551748
-3.4070436954 -4.2667059898 -0.2205518931
-3.4219164848 -4.2547874451 -0.2205518931
-3.4336068630 -4.2389321327 -0.2203486413
-3.4483823776 -4.2269206047 -0.2203486413
-3.4631171227 -4.2148571014 -0.2203486413
-3.4778082371 -4.2027430534 -0.2203486413
-3.4924571514 -4.1905779839 -0.2203486413
-3.5102713108 -4.1821913719 -0.2205518931
-3.5248482227 -4.1699128151 -0.2205518931
-3.5426180363 -4.1613903046 -0.2207551748
-3.5668656826 -4.1603870392 -0.2213649899
-3.5878884792 -4.1554808617 -0.2217715532
-3.6121945381 -4.1542510986 -0.2223813683
-3.6299610138 -4.1453790665 -0.2225846350
-3.6444096565 -4.1326823235 -0.2225846350
-3.6190495491 -4.0750703812 -0.2201453596
-3.6465585232 -4.0773215294 -0.2209584564
-3.7876753807 -4.2057600021 -0.2286828607
-3.8224482536 -4.2147359848 -0.2299024910
-4.3268446922 -4.6399855614 -0.2565313280
-4.3430147171 -4.6248540878 -0.2565313280
-4.3625621796 -4.6132979393 -0.2567346096
-4.5679535866 -4.7971892357 -0.2679146528
-4.4350986481 -4.5575590134 -0.2571411729
-4.4335126877 -4.5241937637 -0.2561247945
-4.4142189026 -4.4730997086 -0.2540920675
-4.4333243370 -4.4612102509 -0.2542953193
-4.4877080917 -4.4845876694 -0.2565313280
-4.3524775505 -4.2589850426 -0.2461643815
-4.3673171997 -4.2437663078 -0.2461643815
-4.3461847305 -4.1937727928 -0.2441316396
-4.3571934700 -4.1751170158 -0.2439283729
-4.9340739250 -4.6632046700 -0.2746226788
-4.9539613724 -4.6493749619 -0.2748259604
-4.8058223724 -4.4786458015 -0.2656786442
-4.6821999550 -4.3327832222 -0.2579542398
-4.6862688065 -4.3062624931 -0.2573444247
-4.7086477280 -4.2966184616 -0.2577509880
-4.7384133339 -4.2935872078 -0.2585640550
-4.7533717155 -4.2770214081 -0.2585640550
-4.9399490356 -4.3831243515 -0.2671015561
-5.0451178551 -4.4451923370 -0.2719801366
-5.0606031418 -4.4275546074 -0.2719801366
-5.1212520599 -4.4492177963 -0.2744194269
-5.0687084198 -4.3725194931 -0.2707605064
-5.0194845200 -4.2994961739 -0.2673048377
-4.8671379089 -4.1393914223 -0.2583608031
-4.9654679298 -4.1933627129 -0.2628328204
-5.0374555588 -4.2242040634 -0.2658819258
-5.0291504860 -4.1873950958 -0.2646622956
-5.0437364578 -4.1698145866 -0.2646622956
-5.0736970901 -4.1648745537 -0.2654753625
-5.0959439278 -4.1534581184 -0.2658819258
-5.1220536232 -4.1450829506 -0.2664917409
-5.1442747116 -4.1334438324 -0.2668983042
-5.1664772034 -4.1216993332 -0.2673048377
-5.1886610985 -4.1098494530 -0.2677114010
-5.2108240128 -4.0978956223 -0.2681179345
-4.5724473000 -3.5435910225 -0.2337646931
-4.5689625740 -3.5154078007 -0.2329515964
-4.5812063217 -3.4994366169 -0.2329515964
-4.6053271294 -3.4924919605 -0.2335614115
-4.6214780807 -3.4794039726 -0.2337646931
-4.6415925026 -3.4692404270 -0.2341712266
-4.6616926193 -3.4589788914 -0.2345777899
-4.6777586937 -3.4456512928 -0.2347810715
-4.6937870979 -3.4322547913 -0.2349843234
-4.7097797394 -3.4187884331 -0.2351876050
-4.7297854424 -3.4081766605 -0.2355941683
-4.7457137108 -3.3945562840 -0.2357974201
-4.7616052628 -3.3808650970 -0.2360007018
-4.7774586678 -3.3671057224 -0.2362039834
-4.7979497910 -3.3553073406 -0.2366105169
-4.8096323013 -3.3385391235 -0.2366105169
-4.8283181190 -3.3290917873 -0.2370170653
-4.8581295013 -3.3209760189 -0.2378301620
-4.8696923256 -3.3039979935 -0.2378301620
-5.5489296913 -3.6814584732 -0.2693375945
-5.5700869560 -3.6675684452 -0.2697441280
-5.7124314308 -3.7329280376 -0.2760456204
-5.8217840195 -3.7755625248 -0.2807208896
-5.8937120438 -3.7931165695 -0.2835667431
-5.9111251831 -3.7752132416 -0.2837700248
-5.9369196892 -3.7625896931 -0.2843798399
-5.9584708214 -3.7471692562 -0.2847863734
-5.9757518768 -3.7289943695 -0.2849896550
-5.9972229004 -3.7133793831 -0.2853961885
-6.0186576843 -3.6976597309 -0.2858027518
-6.0400557518 -3.6818358898 -0.2862092853
-6.0614161491 -3.6659076214 -0.2866158187
-6.0870223045 -3.6524472237 -0.2872256637
-6.1083159447 -3.6362950802 -0.2876321971
-6.1295709610 -3.6200392246 -0.2880387604
-6.1507868767 -3.6036787033 -0.2884452939
-6.1244721413 -3.5595629215 -0.2866158187
-5.4276313782 -2.9541726112 -0.2498233169
-5.3939681053 -2.9114396572 -0.2477905750
-5.3732805252 -2.8760628700 -0.2463676631
-5.3480024338 -2.8385183811 -0.2447414696
-5.3181085587 -2.7988564968 -0.2429120094
-5.2791495323 -2.7548074722 -0.2406760007
-5.2621231079 -2.7225639820 -0.2394563556
-5.2280998230 -2.6795103550 -0.2374236137
-5.2374210358 -2.6612448692 -0.2374236137
-5.2466793060 -2.6429455280 -0.2374236137
-5.2022633553 -2.5977814198 -0.2349843234
-5.2247552872 -2.5636053085 -0.2351876050
-5.2561249733 -2.5562984943 -0.2362039834
-5.2695150375 -2.5401079655 -0.2364072502
-5.3234071732 -2.5432772636 -0.2384399772
-5.3503055573 -2.5332484245 -0.2392530739
-5.3726782799 -2.5209362507 -0.2398629040
-5.3950295448 -2.5084986687 -0.2404727191
-5.4128241539 -2.4938395023 -0.2408792675
-5.4351248741 -2.4811670780 -0.2414890975
-5.4574022293 -2.4683692455 -0.2420989126
-5.4750995636 -2.4533987045 -0.2425054461
-5.4973230362 -2.4403660297 -0.2431152910
-5.5195226669 -2.4272065163 -0.2437251061
-5.5416965485 -2.4139232635 -0.2443349212
-5.5638451576 -2.4005146027 -0.2449447513
-5.5721902847 -2.3810789585 -0.2449447513
-5.6126608849 -2.3752727509 -0.2463676631
-5.6761884689 -2.3788871765 -0.2488069385
-5.5679378510 -2.2878227234 -0.2433185428
-4.5767054558 -1.8608169556 -0.1994114369
-4.5507459641 -1.8317354918 -0.1979885250
-4.5663905144 -1.8195472956 -0.1983950883
-4.5727143288 -1.8035968542 -0.1983950883
-4.5743303299 -1.7858022451 -0.1981918067
-4.5851941109 -1.7716300488 -0.1983950883
-4.5913500786 -1.7556141615 -0.1983950883
-4.5977540016 -1.7387737036 -0.1983950883
-4.6134505272 -1.7254216671 -0.1988016218
-4.6100788116 -1.7058283091 -0.1983950883
-4.6160049438 -1.6897259951 -0.1983950883
-4.6547431946 -1.6855466366 -0.1998180002
-5.3065853119 -1.8805934191 -0.2274632007
-5.4120926857 -1.8968536854 -0.2317319512
-5.4894638062 -1.9025583267 -0.2347810715
-5.5952863693 -1.9174895287 -0.2390497923
-5.6823582649 -1.9252748489 -0.2425054461
-5.7790236473 -1.9356572628 -0.2463676631
-5.8710889816 -1.9438120127 -0.2500265837
-5.9585323334 -1.9497907162 -0.2534822226
-6.0460886955 -1.9551824331 -0.2569378912
-6.1337542534 -1.9599863291 -0.2603935301
-6.2120008469 -1.9611855745 -0.2634426355
-6.2855615616 -1.9603688717 -0.2662884593
-6.3448719978 -1.9546396732 -0.2685244977
-6.4185523987 -1.9528943300 -0.2713703215
-6.4779477119 -1.9463340044 -0.2736063302
-6.5277972221 -1.9365329742 -0.2754357755
-6.5728650093 -1.9249978065 -0.2770619988
-6.6227278709 -1.9145643711 -0.2788914442
-6.6725978851 -1.9038063288 -0.2807208896
-6.7272810936 -1.8940809965 -0.2827536464
-6.7771644592 -1.8826558590 -0.2845831215
-6.8318672180 -1.8722277880 -0.2866158187
-6.8817567825 -1.8601351976 -0.2884452939
-6.9412970543 -1.8502978086 -0.2906813025
-6.9960212708 -1.8387937546 -0.2927140594
-7.0652551651 -1.8307002783 -0.2953566015
-7.1844286919 -1.8082358837 -0.2998286188
-7.2488741875 -1.7976198196 -0.3022679090
-7.3683967590 -1.7714715004 -0.3067399263
-7.4088664055 -1.7525290251 -0.3081628382
-7.4684524536 -1.7391571999 -0.3103988469
-7.5182967186 -1.7231534719 -0.3122283220
-7.5632472038 -1.7057201862 -0.3138545156
-7.6081671715 -1.6879940033 -0.3154806793
-7.6579351425 -1.6710433960 -0.3173101544
-7.7027935982 -1.6527123451 -0.3189363480
-7.7476162910 -1.6340904236 -0.3205625415
-7.7875113487 -1.6141581535 -0.3219854534
-7.8273615837 -1.5939673185 -0.3234083652
-7.8671646118 -1.5735177994 -0.3248312771
-7.9069204330 -1.5528075695 -0.3262541890
-7.9466266632 -1.5318410397 -0.3276771009
-7.9862833023 -1.5106163025 -0.3291000426
-8.0258874893 -1.4891331196 -0.3305229545
-8.0654382706 -1.4673918486 -0.3319458663
-8.1098527908 -1.4462707043 -0.3335720599
-8.1443758011 -1.4231330156 -0.3347916901
-8.1837596893 -1.4006179571 -0.3362146020
-8.2230854034 -1.3778451681 -0.3376375139
-8.2623519897 -1.3548150063 -0.3390604556
-8.3017892838 -1.3300769329 -0.3404833674
-8.3411560059 -1.3050678968 -0.3419062793
-8.3802261353 -1.2812521458 -0.3433291912
-8.4192314148 -1.2571794987 -0.3447521031
-8.4581699371 -1.2328500748 -0.3461749852
-8.4970426559 -1.2082641125 -0.3475979567
-8.5308971405 -1.1827301979 -0.3488175869
-8.5696268082 -1.1576488018 -0.3502404988
-8.6033315659 -1.1316567659 -0.3514601290
-8.6369600296 -1.1054434776 -0.3526797891
-8.6705093384 -1.0790090561 -0.3538994193
-8.7039794922 -1.0523515940 -0.3551190495
-8.7373676300 -1.0254759789 -0.3563386798
-8.7706756592 -0.9983800054 -0.3575583398
-8.8088645935 -0.9716147184 -0.3589812517
-8.8420066833 -0.9440614581 -0.3602008820
-8.8750629425 -0.9162862897 -0.3614205122
-8.9030618668 -0.8877953887 -0.3624369204
-8.9359416962 -0.8596015573 -0.3636565506
-8.9637603760 -0.8307250142 -0.3646729290
-8.9914836884 -0.8016645312 -0.3656892776
-9.0191144943 -0.7724182606 -0.3667056561
-9.0416717529 -0.7425793409 -0.3675187528
-9.0691089630 -0.7129868269 -0.3685351014
-9.0914697647 -0.6828346848 -0.3693482280
-9.1187124252 -0.6528948545 -0.3703645766
-9.1408729553 -0.6224282980 -0.3711776733
-9.1679153442 -0.5921424031 -0.3721940517
-9.1948585510 -0.5616753101 -0.3732104003
-9.2217006683 -0.5310273170 -0.3742267787
-9.2434511185 -0.4999259114 -0.3750398457
-9.2701683044 -0.4673150778 -0.3760562539
-9.2967700958 -0.4345174432 -0.3770726025
-9.3231859207 -0.4031550288 -0.3780889809
-9.3445034027 -0.3714145124 -0.3789020777
-9.3707056046 -0.3397140503 -0.3799184561
-9.3968000412 -0.3078351319 -0.3809348047
-9.4177913666 -0.2756291032 -0.3817479014
-9.4436674118 -0.2434094697 -0.3827642798
-9.4694318771 -0.2110150009 -0.3837806284
-9.4950857162 -0.1784436405 -0.3847970366
-9.5256223679 -0.1457750797 -0.3860166669
-9.5510501862 -0.1128335968 -0.3870330155
-9.5813598633 -0.0797583163 -0.3882526755
-9.6065587997 -0.0464482978 -0.3892690241
-9.6316413879 -0.0129633360 -0.3902853727
-9.6616039276 0.0207040180 -0.3915050626
-9.6814556122 0.0545298196 -0.3923181295
-9.7161760330 0.0886252001 -0.3937410414
-9.7457809448 0.1229009107 -0.3949607015
-9.7552824020 0.1570739597 -0.3953672349
-5.0930228233 0.1557985395 -0.2057129294
-5.0924482346 0.1735752970 -0.2057129294
-5.0918111801 0.1913499236 -0.2057129294
-5.0911121368 0.2091222405 -0.2057129294
-5.0853600502 0.2266762853 -0.2055096477
-5.0844950676 0.2453127801 -0.2055096477
-5.0835618973 0.2639473379 -0.2055096477
-5.0826096535 0.2816903889 -0.2055096477
-5.0766077042 0.2991415560 -0.2053063810
-5.0705461502 0.3165543079 -0.2051031142
-5.0594391823 0.3336064219 -0.2046965510
-5.0532598495 0.3509241939 -0.2044932842
-5.0470213890 0.3682028949 -0.2042900175
-5.0457053185 0.3858177960 -0.2042900175
-5.0393471718 0.4030351341 -0.2040867358
-5.0379095078 0.4206243455 -0.2040867358
-5.0314331055 0.4377794862 -0.2038834691
-5.0248980522 0.4548945427 -0.2036801875
-5.0183057785 0.4719693661 -0.2034769207
-5.0216002464 0.4899630547 -0.2036801875
-5.0248303413 0.5079868436 -0.2038834691
-5.0230264664 0.5255234241 -0.2038834691
-5.0261292458 0.5435853601 -0.2040867358
-5.0192356110 0.5605771542 -0.2038834691
-5.0073208809 0.5769611001 -0.2034769207
-5.0499310493 0.5996910334 -0.2053063810
-10.1859292984 1.2400060892 -0.4158978760
-10.2112846375 1.2792637348 -0.4171175361
-7.7701754570 1.0299179554 -0.3173101544
-7.7665328979 1.0570362806 -0.3173101544
-10.2419099808 1.4285864830 -0.4191502333
-10.2464971542 1.4675251245 -0.4195567966
-10.2509365082 1.5065194368 -0.4199633598
-10.2703180313 1.5459971428 -0.4209797084
-10.2697973251 1.5825955868 -0.4211829901
-10.2790164948 1.6207602024 -0.4217928350
-10.2831611633 1.6582185030 -0.4221993685
-10.2920989990 1.6965324879 -0.4228091836
-10.2959690094 1.7341020107 -0.4232157171
-10.3046255112 1.7725635767 -0.4238255620
-10.3082160950 1.8102449179 -0.4242320955
-10.3067522049 1.8470972776 -0.4244353473
-10.3100719452 1.8848544359 -0.4248419106
-10.3083419800 1.9217443466 -0.4250451922
-10.3113880157 1.9595751762 -0.4254517555
-10.3044853210 1.9955561161 -0.4254517555
-10.3023576736 2.0324797630 -0.4256550074
-10.3196935654 2.0733363628 -0.4266713858
-7.2907629013 1.5726525784 -0.3018613458
-7.3437967300 1.6108940840 -0.3043006361
-6.2891540527 1.4726809263 -0.2612066269
-6.4055070877 1.5234209299 -0.2662884593
-6.4390077591 1.5551211834 -0.2679146528
-6.4044218063 1.5704731941 -0.2666950226
-6.1855473518 1.5399006605 -0.2577509880
-7.7545819283 2.1344225407 -0.3256444037
-7.7182059288 2.1534419060 -0.3244247437
-7.7058339119 2.1790137291 -0.3242214620
-6.1932353973 1.7991964817 -0.2608000934
-6.2396488190 1.8362752199 -0.2630361021
-6.9442620277 2.0957589149 -0.2935271263
-6.9369044304 2.1199858189 -0.2935271263
-6.9055933952 2.1368210316 -0.2925107777
-6.8885550499 2.1579349041 -0.2921042442
-6.8952703476 2.1864862442 -0.2927140594
-6.9113864899 2.2181568146 -0.2937304080
-6.8703331947 2.2314906120 -0.2923074961
-6.8672490120 2.2570147514 -0.2925107777
-6.8308773041 2.2715368271 -0.2912911475
-6.8086977005 2.2905988693 -0.2906813025
-6.7864685059 2.3095335960 -0.2900714874
-6.7689156532 2.3299636841 -0.2896649539
-6.7560219765 2.3519382477 -0.2894616723
-6.7477703094 2.3755083084 -0.2894616723
-6.7394371033 2.3990476131 -0.2894616723
-6.7211956978 2.4203536510 -0.2890551090
-6.7028884888 2.4415602684 -0.2886485755
-6.6849460602 2.4614970684 -0.2882420123
-6.6669464111 2.4813387394 -0.2878354788
-6.6488890648 2.5010862350 -0.2874289155
-6.6354475021 2.5225081444 -0.2872256637
-6.6219367981 2.5438666344 -0.2870223820
-6.6130170822 2.5669655800 -0.2870223820
-6.5947113037 2.5863924026 -0.2866158187
-6.5717043877 2.6038877964 -0.2860060036
-6.5579357147 2.6249582767 -0.2858027518
-6.7386889458 2.7244648933 -0.2941369414
-6.8309211731 2.7894451618 -0.2986089885
-6.8996810913 2.8455953598 -0.3020646274
-7.0050363541 2.9176006317 -0.3071464896
-7.0500879288 2.9652373791 -0.3095857501
-7.1500878334 3.0366194248 -0.3144643307
-8.6964397430 3.7279231548 -0.3833740652
-8.7475795746 3.7860002518 -0.3862199187
-8.7572050095 3.8265020847 -0.3872362971
-9.8273754120 4.3342852592 -0.4354121685
-10.2504272461 4.5634050369 -0.4549264014
-5.4304080009 2.4431643486 -0.2406760007
-10.0300455093 4.8483753204 -0.4516740441
-10.0085687637 4.8811693192 -0.4514707625
-9.9869861603 4.9138717651 -0.4512674809
-9.9652967453 4.9464836121 -0.4510641992
-9.9292278290 4.9740347862 -0.4502511322
-8.5623092651 4.3670368195 -0.3894723058
-8.5292377472 4.3877663612 -0.3886592090
-8.4961271286 4.4083189964 -0.3878461123
-8.4674034119 4.4310069084 -0.3872362971
-8.4386272430 4.4535489082 -0.3866264820
-8.4097938538 4.4759459496 -0.3860166669
-8.3809089661 4.4981932640 -0.3854068220
-8.3519716263 4.5202946663 -0.3847970366
-8.3229818344 4.5422482491 -0.3841871917
-8.2983198166 4.5664606094 -0.3837806284
-8.2604789734 4.5832948685 -0.3827642798
-8.2051773071 4.5901722908 -0.3809348047
-8.1542816162 4.5991711617 -0.3793086112
-8.1121120453 4.6128053665 -0.3780889809
-8.0352611542 4.6063442230 -0.3752431273
-8.0191326141 4.6343660355 -0.3752431273
-8.0072250366 4.6648416519 -0.3754464090
-7.9822740555 4.6877083778 -0.3750398457
-7.9443597794 4.7028312683 -0.3740234971
-7.9150204659 4.7228608131 -0.3734136820
-4.9671673775 3.0135011673 -0.2347810715
-4.9480886459 3.0256168842 -0.2343745083
-0.9732251167 0.6101655364 -0.0451267511
-0.9414353371 0.5950219035 -0.0437038317
-0.9310020804 0.5928162336 -0.0432972834
-0.9373633862 0.6014162302 -0.0437038317
-0.9267361164 0.5994631648 -0.0432972834
-0.9246379733 0.6026943922 -0.0432972834
-0.9225285649 0.6059182882 -0.0432972834
-0.9162279367 0.6063987017 -0.0430940129
-0.9141056538 0.6095932126 -0.0430940129
-0.9119722247 0.6127802730 -0.0430940129
-0.9139786959 0.6187397838 -0.0432972834
-0.9159546494 0.6247206926 -0.0435005575
-0.9178997278 0.6307231784 -0.0437038317
-2.0729973316 1.4373159409 -0.1010269970
-2.0761711597 1.4502470493 -0.1014335454
-2.0588207245 1.4488866329 -0.1008237302
-2.0537505150 1.4560649395 -0.1008237302
-2.0730860233 1.4805932045 -0.1020433679
-2.0597817898 1.4820026159 -0.1016368270
-2.0789048672 1.5067218542 -0.1028564647
-2.0736329556 1.5139694214 -0.1028564647
-4.3458223343 3.1886782646 -0.2177060843
-2.0388889313 1.5106173754 -0.1016368270
-3.1644937992 2.3579044342 -0.1589599848
-4.3201928139 3.2399978638 -0.2181126177
-2.0149798393 1.5258704424 -0.1012302786
-4.2974677086 3.2700800896 -0.2181126177
-4.2899951935 3.2880959511 -0.2183158994
-4.2745342255 3.3000016212 -0.2181126177
-2.0487365723 1.5967329741 -0.1040761024
-4.2553286552 3.3328387737 -0.2183158994
-2.0058584213 1.5866256952 -0.1024499163
-1.9922027588 1.5877561569 -0.1020433679
-1.9983561039 1.6040574312 -0.1026531905
-1.9888530970 1.6078907251 -0.1024499163
-2.0103943348 1.6368453503 -0.1038728282
-2.0511071682 1.6817677021 -0.1063121185
-2.0413653851 1.6857439280 -0.1061088368
-1.9969911575 1.6609948874 -0.1040761024
-1.9719982147 1.6519558430 -0.1030597314
-1.9585691690 1.6524026394 -0.1026531905
-1.9566035271 1.6624557972 -0.1028564647
-1.9507886171 1.6692754030 -0.1028564647
-1.9487409592 1.6793283224 -0.1030597314
-1.9466475248 1.6893867254 -0.1032630131
-1.9520447254 1.7060099840 -0.1038728282
-1.9535924196 1.7193989754 -0.1042793840
-1.9588159323 1.7361249924 -0.1048891991
-1.9602117538 1.7495900393 -0.1052957475
-1.9652603865 1.7664172649 -0.1059055701
-1.9590826035 1.7732664347 -0.1059055701
-1.9528808594 1.7800940275 -0.1059055701
-1.9872173071 1.8239769936 -0.1081415787
-2.0028920174 1.8512041569 -0.1093612239
-1.9890902042 1.8513914347 -0.1089546680
-2.0593068600 1.9299141169 -0.1132234186
-2.0561978817 1.9405124187 -0.1134266928
-2.8838684559 2.7376122475 -0.1601796299
-2.8815262318 2.7545568943 -0.1605861783
-2.8718936443 2.7645983696 -0.1605861783
-2.8586342335 2.7711338997 -0.1603829116
-2.8489439487 2.7810955048 -0.1603829116
-2.8570568562 2.8085095882 -0.1613992751
-3.0001153946 2.9693841934 -0.1701400429
-3.0109903812 3.0009708405 -0.1713596731
-3.0040276051 3.0149972439 -0.1715629548
-2.9934852123 3.0254647732 -0.1715629548
-2.9373283386 2.9896278381 -0.1689203978
-2.9024193287 2.9748649597 -0.1674974859
-2.8711309433 2.9634773731 -0.1662778258
-2.8538322449 2.9662904739 -0.1658712924
-2.8227248192 2.9545879364 -0.1646516472
-2.8123943806 2.9644229412 -0.1646516472
-1.7391878366 1.8751199245 -0.1024499163
-1.7326319218 1.8811793327 -0.1024499163
-1.7291041613 1.8911970854 -0.1026531905
-1.7120648623 1.8864451647 -0.1020433679
-1.7125061750 1.8995188475 -0.1024499163
-1.7092055082 1.9091998339 -0.1026531905
-1.7021962404 1.9154517651 -0.1026531905
-1.6921862364 1.9176430702 -0.1024499163
-1.6920832396 1.9310388565 -0.1028564647
-1.7182064056 1.9745521545 -0.1048891991
-1.7047549486 1.9729912281 -0.1044826508
-1.7104268074 2.0076205730 -0.1057022959
-1.6146872044 1.9639748335 -0.1018400937
-1.5983189344 1.9580094814 -0.1012302786
-1.5315451622 1.8899658918 -0.0973680764
-1.5217980146 1.8914150000 -0.0971648023
-1.4745353460 1.8460650444 -0.0945222452
-1.4244946241 1.7965013981 -0.0916764140
-1.4089158773 1.7897090912 -0.0910665914
-1.3903154135 1.7789015770 -0.0902535021
-1.3533741236 1.7443488836 -0.0882207602
-1.3411600590 1.7411619425 -0.0878142118
-1.3381189108 1.7497937679 -0.0880174860
-1.3441265821 1.7703396082 -0.0888305828
-1.3138022423 1.7431651354 -0.0872043967
-1.2746753693 1.7038228512 -0.0849683806
-1.2448070049 1.6762382984 -0.0833421946
