0.2254646719 0.6652269363 0.0542577505
0.2262476236 0.6596951485 0.0538497977
0.2286639065 0.6588615179 0.0538497977
0.2309625000 0.6580592990 0.0538497977
0.2315543592 0.6525660753 0.0534418449
0.2338309735 0.6517537832 0.0534418449
0.2361047268 0.6509335041 0.0534418449
0.2366227359 0.6454404593 0.0530338921
0.2388744503 0.6446105242 0.0530338921
0.2411229014 0.6437728405 0.0530338921
0.2433687449 0.6429271698 0.0530338921
0.2456116378 0.6420736909 0.0530338921
0.2460175157 0.6365788579 0.0526259392
0.2480161041 0.6358028054 0.0526259392
0.2502340674 0.6349331737 0.0526259392
0.2524490356 0.6340557933 0.0526259392
0.2546605468 0.6331707835 0.0526259392
0.2549566627 0.6276762486 0.0522179902
0.2571459115 0.6267825365 0.0522179902
0.2593323290 0.6258810759 0.0522179902
0.2615156174 0.6249719858 0.0522179902
0.2636953890 0.6240553856 0.0522179902
0.2658722699 0.6231310964 0.0522179902
0.2680456042 0.6221992970 0.0522179902
0.2702159882 0.6212598085 0.0522179902
0.2723830640 0.6203126907 0.0522179902
0.2745465040 0.6193582416 0.0522179902
0.2767069340 0.6183960438 0.0522179902
0.2788636684 0.6174264550 0.0522179902
0.2810173035 0.6164492369 0.0522179902
0.2831675410 0.6154645085 0.0522179902
0.2853139639 0.6144723892 0.0522179902
0.2853063941 0.6089774370 0.0518100373
0.2874302268 0.6079778671 0.0518100373
0.2895508111 0.6069707870 0.0518100373
0.2916679084 0.6059563160 0.0518100373
0.2959945500 0.6093993783 0.0522179902
0.2981200814 0.6083624363 0.0522179902
0.3002416492 0.6073181629 0.0522179902
0.3023598790 0.6062663794 0.0522179902
0.3067499697 0.6096405983 0.0526259392
0.3088759482 0.6085662246 0.0526259392
0.3109984994 0.6074842811 0.0526259392
0.3131169379 0.6063950658 0.0526259392
0.3128946424 0.6008971334 0.0522179902
0.3149903715 0.5998011827 0.0522179902
0.3170819581 0.5986980796 0.0522179902
0.3167868257 0.5932110548 0.0518100373
0.3188554049 0.5921017528 0.0518100373
0.3209204078 0.5909850597 0.0518100373
0.3229815066 0.5898611546 0.0518100373
0.3250383437 0.5887302756 0.0518100373
0.3270915449 0.5875920057 0.0518100373
0.3291404545 0.5864467621 0.0518100373
0.3286962211 0.5809772015 0.0514020845
0.3307223320 0.5798262358 0.0514020845
0.3302246332 0.5743688941 0.0509941317
0.3296931982 0.5689219236 0.0505861789
0.3291274905 0.5634859204 0.0501782261
0.3285281658 0.5580606461 0.0497702733
0.3278949857 0.5526464581 0.0493623167
0.3272277713 0.5472437143 0.0489543639
0.3317450881 0.5503438711 0.0493623167
0.3389115632 0.5576559901 0.0501782261
0.3461332619 0.5649244785 0.0509941317
0.3507565260 0.5679309964 0.0514020845
0.3580726385 0.5751211643 0.0522179902
0.3600781262 0.5738676786 0.0522179902
0.3620789349 0.5726073980 0.0522179902
0.3640756011 0.5713399649 0.0522179902
0.3633413613 0.5658942461 0.0518100373
0.3653143048 0.5646226406 0.0518100373
0.3672831059 0.5633438826 0.0518100373
0.3720171750 0.5662010312 0.0522179902
0.3737943172 0.5650293827 0.0522179902
0.3757641912 0.5637212992 0.0522179902
0.3749179244 0.5582918525 0.0518100373
0.3768642843 0.5569798350 0.0518100373
0.3789033890 0.5555946827 0.0518100373
0.3810339272 0.5541356802 0.0518100373
0.3828694522 0.5528690815 0.0518100373
0.3847004771 0.5515965819 0.0518100373
0.3896185756 0.5542361736 0.0522179902
0.3913577497 0.5530095100 0.0522179902
0.3932858407 0.5516399741 0.0522179902
0.3952088654 0.5502638817 0.0522179902
0.3971273601 0.5488809347 0.0522179902
0.3990407288 0.5474914312 0.0522179902
0.4009495080 0.5460951328 0.0522179902
0.4028533995 0.5446921587 0.0522179902
0.4047521055 0.5432827473 0.0522179902
0.4066461623 0.5418664813 0.0522179902
0.4115720987 0.5443947315 0.0526259392
0.4134699702 0.5429546833 0.0526259392
0.4184274673 0.5454376340 0.0530338921
0.4203286767 0.5439738035 0.0530338921
0.4222250581 0.5425031781 0.0530338921
0.4241160154 0.5410261750 0.0530338921
0.4260020554 0.5395423770 0.0530338921
0.4278829396 0.5380519629 0.0530338921
0.4266120791 0.5326907039 0.0526259392
0.4284690320 0.5311982036 0.0526259392
0.4303204715 0.5296994448 0.0526259392
0.4321669638 0.5281940699 0.0526259392
0.4340081811 0.5266821980 0.0526259392
0.4390570223 0.5289732218 0.0530338921
0.4409009218 0.5274372697 0.0530338921
0.4427391887 0.5258951783 0.0530338921
0.4445722997 0.5243464112 0.0530338921
0.4464000165 0.5227913260 0.0530338921
0.4482220113 0.5212300420 0.0530338921
0.4533310831 0.5234031081 0.0534418449
0.4551551938 0.5218176246 0.0534418449
0.4569739997 0.5202255845 0.0534418449
0.4621185064 0.5223333836 0.0538497977
0.4639388323 0.5207172632 0.0538497977
0.4657537341 0.5190945268 0.0538497977
0.4641928375 0.5137946010 0.0534418449
0.4659835994 0.5121710300 0.0534418449
0.4643732309 0.5068936944 0.0530338921
0.4661396444 0.5052697659 0.0530338921
0.4679006338 0.5036394596 0.0530338921
0.4696556628 0.5020032525 0.0530338921
0.4748512506 0.5039604902 0.0534418449
0.4766075909 0.5022997856 0.0534418449
0.4783578813 0.5006331801 0.0534418449
0.4801026285 0.4989602864 0.0534418449
0.4818412364 0.4972814918 0.0534418449
0.4835742414 0.4955964386 0.0534418449
0.4853013456 0.4939053357 0.0534418449
0.4870222807 0.4922084510 0.0534418449
0.4887375534 0.4905053377 0.0534418449
0.4904466271 0.4887964725 0.0534418449
0.4921499491 0.4870814383 0.0534418449
0.4938472807 0.4853604436 0.0534418449
0.4955383241 0.4836337864 0.0534418449
0.4972236156 0.4819009900 0.0534418449
0.4989025891 0.4801625609 0.0534418449
0.5005757213 0.4784180522 0.0534418449
0.5022427440 0.4766676724 0.0534418449
0.5000854731 0.4716972113 0.0530338921
0.5018108487 0.4698612094 0.0530338921
0.5035295486 0.4680188894 0.0530338921
0.5050787926 0.4663465619 0.0530338921
0.5067848563 0.4644920230 0.0530338921
0.5083224177 0.4628088772 0.0530338921
0.5100151896 0.4609427452 0.0530338921
0.5114607215 0.4593382776 0.0530338921
0.5130611062 0.4575500488 0.0530338921
0.5146549344 0.4557565153 0.0530338921
0.5162428021 0.4539571404 0.0530338921
0.5178241134 0.4521524906 0.0530338921
0.5193993449 0.4503421187 0.0530338921
0.5247706175 0.4517473876 0.0534418449
0.5263441205 0.4499129951 0.0534418449
0.5317362547 0.4512674212 0.0538497977
0.5333080888 0.4494087100 0.0538497977
0.5387205482 0.4507120550 0.0542577505
0.5402906537 0.4488287270 0.0542577505
0.5418539047 0.4469401836 0.0542577505
0.5434108377 0.4450459182 0.0542577505
0.5449609160 0.4431465268 0.0542577505
0.5426028967 0.4381412864 0.0538497977
0.5441290736 0.4362444878 0.0538497977
0.5456483960 0.4343426228 0.0538497977
0.5471613407 0.4324351847 0.0538497977
0.5526118875 0.4335681498 0.0542577505
0.5541220307 0.4316364229 0.0542577505
0.5595911145 0.4327172041 0.0546657033
0.5610980392 0.4307613969 0.0546657033
0.5625983477 0.4288000464 0.0546657033
0.5680887103 0.4298098683 0.0550736636
0.5695856214 0.4278241396 0.0550736636
0.5710756183 0.4258331954 0.0550736636
0.5725584626 0.4238373637 0.0550736636
0.5780727267 0.4247560203 0.0554816127
0.5795517564 0.4227357507 0.0554816127
0.5850824714 0.4236017764 0.0558895655
0.5865576267 0.4215567410 0.0558895655
0.5880254507 0.4195069075 0.0558895655
0.5894863009 0.4174516201 0.0558895655
0.5950382352 0.4182263315 0.0562975183
0.5964946151 0.4161465764 0.0562975183
0.5979436636 0.4140617847 0.0562975183
0.5993852615 0.4119722247 0.0562975183
0.6008197069 0.4098773301 0.0562975183
0.6063940525 0.4105405807 0.0567054711
0.6078234911 0.4084212482 0.0567054711
0.6134120226 0.4090307057 0.0571134239
0.6148359776 0.4068872035 0.0571134239
0.6204380989 0.4074430466 0.0575213768
0.6218564510 0.4052750170 0.0575213768
0.6274716854 0.4057770669 0.0579293296
0.6287433505 0.4038038850 0.0579293296
0.6301491261 0.4016065896 0.0579293296
0.6315470338 0.3994046748 0.0579293296
0.6286971569 0.3945797682 0.0575213768
0.6173223853 0.3845735490 0.0562975183
0.6144024730 0.3798283637 0.0558895655
0.6029220819 0.3699612916 0.0546657033
0.5999332070 0.3652962148 0.0542577505
0.6012047529 0.3631997406 0.0542577505
0.6024689674 0.3610987961 0.0542577505
0.6037256718 0.3589937687 0.0542577505
0.6092869639 0.3593825102 0.0546657033
0.6062171459 0.3547703028 0.0542577505
0.6204392910 0.3600568175 0.0554816127
0.6091424823 0.3396043777 0.0538497977
0.5971847177 0.3303446770 0.0526259392
0.5807816386 0.3188112080 0.0509941317
0.5643056631 0.3073960543 0.0493623167
0.5962066650 0.3217421174 0.0522179902
0.6017388105 0.3219746053 0.0526259392
0.6338037848 0.3359739780 0.0554816127
0.6526872516 0.3428990543 0.0571134239
0.6805000305 0.3542346358 0.0595611408
0.6817322969 0.3518573046 0.0595611408
0.6785040498 0.3472370207 0.0591531880
0.6752519011 0.3426435590 0.0587452352
0.6764437556 0.3402846158 0.0587452352
0.6731519699 0.3357295990 0.0583372824
0.6742033362 0.3336132467 0.0583372824
0.6708738208 0.3290958107 0.0579293296
0.6675209403 0.3246060908 0.0575213768
0.6686499715 0.3222738802 0.0575213768
0.6652585864 0.3178230524 0.0571134239
0.6618440747 0.3134001791 0.0567054711
0.6629341245 0.3110878766 0.0567054711
0.6594815850 0.3067047596 0.0562975183
0.6560067534 0.3023492396 0.0558895655
0.6570582390 0.3000573516 0.0558895655
0.6535458565 0.2957424223 0.0554816127
0.6500115991 0.2914553583 0.0550736636
0.6464551687 0.2871969044 0.0546657033
0.6428772211 0.2829665542 0.0542577505
0.6392776966 0.2787646949 0.0538497977
0.6310663223 0.2726518214 0.0530338921
0.6320142746 0.2704471946 0.0530338921
0.6283507347 0.2663317621 0.0526259392
0.6292766333 0.2641366720 0.0526259392
0.6301948428 0.2619383335 0.0526259392
0.6357286572 0.2615966797 0.0530338921
0.6366379857 0.2593758404 0.0530338921
0.6421756744 0.2589793801 0.0534418449
0.6430757642 0.2567360699 0.0534418449
0.6439681053 0.2544896007 0.0534418449
0.6401972771 0.2504618466 0.0530338921
0.6410677433 0.2482254654 0.0530338921
0.6372627616 0.2442404032 0.0526259392
0.6380270123 0.2422369272 0.0526259392
0.6341897249 0.2382934988 0.0522179902
0.6303328276 0.2343795151 0.0518100373
0.6311470866 0.2321779877 0.0518100373
0.6272571087 0.2283074260 0.0514020845
0.6233478785 0.2244668305 0.0509941317
0.6241275072 0.2222897857 0.0509941317
0.6201859117 0.2184930295 0.0505861789
0.6162253022 0.2147268355 0.0501782261
0.6122461557 0.2109906822 0.0497702733
0.6035179496 0.2057176977 0.0489543639
0.5994964242 0.2020592839 0.0485464111
0.5954567790 0.1984311491 0.0481384583
0.5913991332 0.1948340088 0.0477305055
0.5873237848 0.1912673414 0.0473225527
0.5879878998 0.1892158985 0.0473225527
0.5838824511 0.1856946796 0.0469145998
0.5797597766 0.1822041422 0.0465066470
0.5803922415 0.1801794618 0.0465066470
0.5762403011 0.1767344624 0.0460986942
0.5720714331 0.1733206511 0.0456907414
0.5726729035 0.1713228822 0.0456907414
0.5684755445 0.1679549813 0.0452827886
0.5690582991 0.1659697592 0.0452827886
0.5696341991 0.1639822721 0.0452827886
0.5702031851 0.1619927585 0.0452827886
0.5707651377 0.1600015759 0.0452827886
0.5665050745 0.1567242295 0.0448748358
0.5670486689 0.1547459662 0.0448748358
0.5627614260 0.1515153050 0.0444668829
0.5584586263 0.1483164430 0.0440589264
0.5589728951 0.1463663280 0.0440589264
0.5546436310 0.1432144791 0.0436509736
0.5551401377 0.1412776858 0.0436509736
0.5507848859 0.1381730586 0.0432430208
0.5512639284 0.1362494975 0.0432430208
0.5517361164 0.1343245804 0.0432430208
0.5473446846 0.1312826574 0.0428350680
0.5477544069 0.1295625418 0.0428350680
0.5433390737 0.1265667826 0.0424271151
0.5437775254 0.1246695817 0.0424271151
0.5393377542 0.1217217147 0.0420191623
0.5397592783 0.1198384911 0.0420191623
0.5352954268 0.1169387400 0.0416112095
0.5357003808 0.1150693819 0.0416112095
0.5312129259 0.1122181788 0.0412032567
0.5267121196 0.1093994379 0.0407953039
0.5319833755 0.1085069478 0.0412032567
0.5323588848 0.1066492274 0.0412032567
0.5327279568 0.1047901809 0.0412032567
0.4781351686 -0.2631660998 0.0627717599
0.4990211427 -0.2766641378 0.0658487976
0.5154652596 -0.2879297733 0.0683104470
0.5231468081 -0.2945203483 0.0695412606
0.5568073988 -0.3156380653 0.0744645298
0.5773424506 -0.3297137618 0.0775415823
0.5977857113 -0.3439364731 0.0806186274
0.6095761061 -0.3532855213 0.0824648514
0.6127045155 -0.3577755094 0.0830802694
0.6157465577 -0.3623975515 0.0836956799
0.6144777536 -0.3645447195 0.0836956799
0.6174786687 -0.3692028224 0.0843110904
0.6161861420 -0.3713559806 0.0843110904
0.6191456318 -0.3760498166 0.0849264935
0.6178292036 -0.3782087266 0.0849264935
0.6165052056 -0.3803630769 0.0849264935
0.6151737571 -0.3825127482 0.0849264935
0.6138347983 -0.3846577704 0.0849264935
0.6124883294 -0.3867981136 0.0849264935
0.6111344099 -0.3889337480 0.0849264935
0.6097730994 -0.3910646141 0.0849264935
0.6084042788 -0.3931907415 0.0849264935
0.6153829694 -0.4006675780 0.0861573145
0.6306528449 -0.4135824740 0.0886189491
0.7123780251 -0.4699182808 0.1009271368
0.7812691331 -0.5186648965 0.1113891006
0.8539674282 -0.5706335306 0.1224664673
0.8643605113 -0.5818616748 0.1243126988
0.8623241782 -0.5848753452 0.1243126988
0.8890526295 -0.6073349118 0.1286205649
0.8992303014 -0.6188145876 0.1304667890
3.8527250290 -2.6900680065 0.5778693557
3.8442549706 -2.7021584511 0.5778693557
3.8591153622 -2.7327396870 0.5815618634
3.8859367371 -2.7720885277 0.5871005654
3.8762366772 -2.7856361866 0.5871005654
3.8866016865 -2.8136765957 0.5901775956
3.8727440834 -2.8243067265 0.5895621777
3.8428511620 -2.8231410980 0.5864851475
3.8170061111 -2.8247485161 0.5840234756
3.8111042976 -2.8410165310 0.5846389532
3.7971928120 -2.8513274193 0.5840234756
3.7792949677 -2.8585865498 0.5827926397
3.7732439041 -2.8747642040 0.5834080577
3.7198488712 -2.8547358513 0.5766385794
3.7687995434 -2.9131572247 0.5858697295
3.7664449215 -2.9323830605 0.5871005654
3.7952654362 -2.9760887623 0.5932546258
3.7809569836 -2.9862475395 0.5926392674
3.7705099583 -2.9994273186 0.5926392674
3.7600171566 -3.0125706196 0.5926392674
3.7108292580 -2.9945580959 0.5864851475
3.6887917519 -2.9981169701 0.5846389532
1.2310374975 -1.0339223146 0.1944693625
1.2086386681 -1.0296697617 0.1920077205
1.1070140600 -0.9500056505 0.1760070771
1.0850259066 -0.9375191927 0.1729300320
1.0404410362 -0.9056216478 0.1661605388
1.0559920073 -0.9255312681 0.1692375839
1.0639518499 -0.9390208721 0.1710838079
1.0420632362 -0.9263154268 0.1680067629
1.0017292500 -0.8969903588 0.1618526578
0.9764047265 -0.8806298971 0.1581602097
0.9475206137 -0.8607823849 0.1538523436
0.9261366725 -0.8474128842 0.1507752985
0.9048578143 -0.8339046240 0.1476982534
0.8836848140 -0.8202584982 0.1446212083
0.8589787483 -0.8031023145 0.1409287453
0.8380312324 -0.7891691923 0.1378517002
0.8171917200 -0.7750998139 0.1347746551
0.8000648618 -0.7643052340 0.1323130131
0.7794314027 -0.7499776483 0.1292359680
0.7624881268 -0.7389512062 0.1267743260
0.7456314564 -0.7278158069 0.1243126988
0.7288619280 -0.7165718675 0.1218510568
0.7121803164 -0.7052198648 0.1193894222
0.6955869198 -0.6937603354 0.1169277802
0.6755626798 -0.6786960959 0.1138507351
0.6556523442 -0.6635007262 0.1107736900
0.6358565688 -0.6481748819 0.1076966450
0.6162863374 -0.6326115131 0.1046195924
0.6002982855 -0.6204709411 0.1021579579
0.5842915177 -0.6083334088 0.0996963233
0.5787175894 -0.6067999005 0.0990809128
0.5731614828 -0.6052349210 0.0984654948
0.5676234365 -0.6036386490 0.0978500918
0.5621036291 -0.6020110250 0.0972346812
0.5566020608 -0.6003523469 0.0966192707
0.5545030236 -0.6022916436 0.0966192707
0.5456545353 -0.5969420075 0.0953884497
0.5334915519 -0.5878856182 0.0935422257
0.5247444510 -0.5824158192 0.0923114121
0.5127090216 -0.5732163787 0.0904651731
0.5007443428 -0.5639401674 0.0886189491
0.4921581447 -0.5582866073 0.0873881280
0.4803231955 -0.5488694906 0.0855419040
0.4751229584 -0.5468207002 0.0849264935
0.4797481000 -0.5559428334 0.0861573145
0.4875706434 -0.5688486099 0.0880035385
0.4953087866 -0.5818156600 0.0898497701
0.5061913729 -0.5986111164 0.0923114121
0.4848030210 -0.5777018666 0.0886189491
3.0321722031 -3.5961847305 0.5784848332
3.0196006298 -3.6067471504 0.5784848332
3.0165209770 -3.6287021637 0.5803310275
3.0038359165 -3.6392097473 0.5803310275
2.9942643642 -3.6535072327 0.5809464455
2.9814927578 -3.6639368534 0.5809464455
2.9718079567 -3.6781780720 0.5815618634
2.9589505196 -3.6885292530 0.5815618634
2.9491527081 -3.7027134895 0.5821772814
2.9392919540 -3.7168736458 0.5827926397
2.9293682575 -3.7310106754 0.5834080577
2.9200353622 -3.7446141243 0.5840234756
2.9106442928 -3.7581963539 0.5846389532
2.9005370140 -3.7722637653 0.5852543712
2.8903665543 -3.7863061428 0.5858697295
2.8771324158 -3.7963721752 0.5858697295
2.8661854267 -3.8108544350 0.5864851475
2.8565063477 -3.8243103027 0.5871005654
2.8431396484 -3.8342580795 0.5871005654
2.8120625019 -3.8202021122 0.5834080577
2.8280303478 -3.8700256348 0.5895621777
2.3914339542 -3.3468272686 0.5052511096
2.3854882717 -3.3632416725 0.5064818859
2.3794574738 -3.3796553612 0.5077127218
2.3704931736 -3.3920044899 0.5083281994
2.3614714146 -3.4043316841 0.5089435577
2.3523929119 -3.4166374207 0.5095589757
2.3432569504 -3.4289214611 0.5101743937
2.3340642452 -3.4411830902 0.5107898116
2.3248140812 -3.4534218311 0.5114051700
2.3155069351 -3.4656383991 0.5120205879
2.3088903427 -3.4819641113 0.5132514238
2.2994546890 -3.4941437244 0.5138667822
2.2926809788 -3.5104513168 0.5150976777
2.2831172943 -3.5225934982 0.5157130957
2.2761857510 -3.5388813019 0.5169438720
2.2664937973 -3.5509843826 0.5175592899
2.2594048977 -3.5672514439 0.5187900662
2.2522306442 -3.5835123062 0.5200209022
2.2449700832 -3.5997667313 0.5212517977
2.2376229763 -3.6160132885 0.5224825740
2.2327914238 -3.6364781857 0.5243287683
2.2284829617 -3.6565644741 0.5261750221
2.2247068882 -3.6762733459 0.5280212760
2.2188932896 -3.6971569061 0.5298674703
2.2123074532 -3.7184333801 0.5317136645
2.2068965435 -3.7389435768 0.5335599780
2.1944856644 -3.7462413311 0.5335599780
2.1820507050 -3.7534978390 0.5335599780
2.1689352989 -3.7610919476 0.5335599780
2.1557931900 -3.7686400414 0.5335599780
2.1450788975 -3.7804546356 0.5341753364
2.1343083382 -3.7922406197 0.5347907543
2.1234819889 -3.8039972782 0.5354061723
2.1150081158 -3.8200631142 0.5366370082
2.1040539742 -3.8317687511 0.5372523665
2.0978007317 -3.8521549702 0.5390986204
2.0914306641 -3.8725435734 0.5409448743
2.0463924408 -3.9524912834 0.5470989347
2.0277724266 -3.9843595028 0.5495605469
2.0340151787 -4.0312604904 0.5550992489
2.0177063942 -4.0339012146 0.5544838905
2.0058221817 -4.0453624725 0.5550992489
1.9916893244 -4.0523390770 0.5550992489
1.9775317907 -4.0592670441 0.5550992489
1.9655127525 -4.0706110001 0.5557146668
1.9512917995 -4.0774469376 0.5557146668
1.9413102865 -4.0931954384 0.5569455028
1.9248943329 -4.0954585075 0.5563300848
1.9210878611 -4.1246309280 0.5594071746
1.9053140879 -4.1264762878 0.5587916970
1.8999012709 -4.1508092880 0.5612533689
2.1522271633 -4.7882552147 0.6461798549
2.1415684223 -4.8093314171 0.6480260491
2.1307892799 -4.8303909302 0.6498723030
2.1159067154 -4.8423442841 0.6504877210
2.1049165726 -4.8633561134 0.6523339152
2.0918469429 -4.8797917366 0.6535647511
2.0786871910 -4.8961949348 0.6547955871
2.0665085316 -4.9174985886 0.6566418409
2.0540137291 -4.9334821701 0.6578726172
2.0405712128 -4.9497933388 0.6591034532
2.0270402431 -4.9660701752 0.6603342295
2.0134201050 -4.9823131561 0.6615651250
2.0015590191 -5.0031266212 0.6634113193
1.9877460003 -5.0193061829 0.6646421552
1.9756588936 -5.0400681496 0.6664883494
1.9616522789 -5.0561819077 0.6677191854
1.9493398666 -5.0768909454 0.6695654392
1.9369072914 -5.0975742340 0.6714116335
1.9243539572 -5.1182327271 0.6732578278
1.9099448919 -5.1342172623 0.6744887233
1.8971663713 -5.1548175812 0.6763349175
1.8825647831 -5.1707305908 0.6775657535
1.8712471724 -5.1959381104 0.6800273657
1.8564375639 -5.2117834091 0.6812582016
1.8464987278 -5.2416243553 0.6843352318
1.8281910419 -5.2480378151 0.6843352318
1.8163419962 -5.2731475830 0.6867969036
1.7979243994 -5.2794556618 0.6867969036
1.7223316431 -5.1164579391 0.6646421552
1.7751638889 -5.3342385292 0.6923355460
1.7565333843 -5.3404026031 0.6923355460
1.7101917267 -5.2615861893 0.6812582016
1.6644227505 -5.1825122833 0.6701807976
1.6523437500 -5.2072029114 0.6726424098
1.6386232376 -5.2271394730 0.6744887233
1.6247841120 -5.2470431328 0.6763349175
1.6108253002 -5.2669134140 0.6781811118
1.5967483521 -5.2867507935 0.6800273657
1.5825523138 -5.3065528870 0.6818736196
1.5682367086 -5.3263206482 0.6837198138
1.5538030863 -5.3460526466 0.6855660081
1.5392502546 -5.3657493591 0.6874123216
1.5259354115 -5.3901820183 0.6898739338
1.5111292601 -5.4098086357 0.6917201281
1.4975266457 -5.4341802597 0.6941817999
1.4837728739 -5.4585227966 0.6966434121
1.4685773849 -5.4780435562 0.6984896064
1.4545369148 -5.5023202896 0.7009512782
1.4390891790 -5.5217657089 0.7027975321
1.4247615337 -5.5459747314 0.7052591443
1.4102830887 -5.5701503754 0.7077208161
1.3944468498 -5.5894794464 0.7095670104
1.3796823025 -5.6135830879 0.7120286226
1.3647664785 -5.6376509666 0.7144902945
1.3508535624 -5.6665091515 0.7175673246
1.3356183767 -5.6905088425 0.7200289965
1.3191099167 -5.7096371651 0.7218751907
1.3024849892 -5.7287192345 0.7237213850
1.2868304253 -5.7525968552 0.7261831164
1.2667418718 -5.7570538521 0.7261831164
1.2613898516 -5.8293232918 0.7347987890
1.2410335541 -5.8336911201 0.7347987890
1.3911681175 -6.7553300858 0.8504957557
1.3725173473 -6.7844586372 0.8535728455
1.3527085781 -6.8086729050 0.8560344577
1.3337019682 -6.8377008438 0.8591115475
1.3135716915 -6.8618059158 0.8615731597
1.2942095995 -6.8907289505 0.8646501303
1.2737592459 -6.9147219658 0.8671118617
1.2549270391 -6.9484200478 0.8708042502
1.2263230085 -6.9283308983 0.8677272201
1.1919137239 -6.8739089966 0.8603423238
1.1620720625 -6.8437881470 0.8560344577
1.1635109186 -6.9995231628 0.8751121163
1.1510729790 -7.0769982338 0.8843432665
1.0626732111 -6.9954657555 0.8726505041
1.0433704853 -7.0334868431 0.8769583702
1.0012165308 -7.0897264481 0.8831124306
0.9812241197 -7.1275844574 0.8874203563
0.9570016861 -7.1358833313 0.8880357146
0.9094790816 -6.9669890404 0.8664964437
0.8816124201 -7.1405897141 0.8874203563
0.8186397552 -6.8283433914 0.8480341434
0.7988401055 -6.8656573296 0.8523419499
0.7765499949 -6.8831949234 0.8541882634
0.7552317381 -6.9105243683 0.8572652340
0.7342586517 -6.9427232742 0.8609577417
0.7130689621 -6.9748587608 0.8646501303
0.6911736727 -7.0019936562 0.8677272201
0.6695715189 -7.0339999199 0.8714196682
0.6472967267 -7.0609989166 0.8744967580
0.6252818704 -7.0928702354 0.8781891465
0.6026293039 -7.1197295189 0.8812662363
0.5802026391 -7.1514625549 0.8849587440
0.5575616956 -7.1831250191 0.8886511326
0.5343355536 -7.2097682953 0.8917282224
0.5112841129 -7.2412858009 0.8954206109
0.4880182147 -7.2727303505 0.8991131186
0.4642214477 -7.2991480827 0.9021901488
0.4411497712 -7.3403468132 0.9071134329
0.4166595340 -7.3616576195 0.9095750451
0.3914935887 -7.3729763031 0.9108058810
0.3499057293 -8.1995887756 1.0129637718
0.3212810159 -8.2007608414 1.0129637718
0.2922933400 -8.1919155121 1.0117330551
0.2632074356 -8.1780080795 1.0098868608
0.2342232615 -8.1639966965 1.0080405474
0.2052119821 -8.1449241638 1.0055789948
0.1763356030 -8.1257467270 1.0031173229
0.1475967169 -8.1064691544 1.0006556511
0.1189172789 -8.0821275711 0.9975785613
0.0904695392 -8.0626468658 0.9951170087
0.0621592477 -8.0430660248 0.9926552773
0.0339856930 -8.0233869553 0.9901937246
0.0059513538 -8.0036087036 0.9877320528
-0.0219455548 -7.9837327003 0.9852704406
-0.0496748649 -7.9587979317 0.9821934104
-0.0772753954 -7.9387292862 0.9797317386
-0.1047374904 -7.9185647964 0.9772701263
-0.1320586801 -7.8983049393 0.9748084545
-0.1593377739 -7.8829131126 0.9729622006
-0.1863956600 -7.8624658585 0.9705005884
-0.2134443820 -7.8468871117 0.9686543941
-0.2400897741 -7.8212952614 0.9655773044
-0.2667243183 -7.8005728722 0.9631156921
-0.2950537503 -7.8293457031 0.9668081403
-0.3233853579 -7.8530573845 0.9698851705
-0.3503589332 -7.8419666290 0.9686543941
-0.3767891228 -7.8208703995 0.9661927223
-0.4066140354 -7.8690624237 0.9723467827
-0.4392116368 -7.9617333412 0.9840396047
-0.4727474153 -8.0592250824 0.9963478446
-0.5069690347 -8.1565780640 1.0086559057
-0.5351164341 -8.1498069763 1.0080405474
-0.5628824234 -8.1379880905 1.0068097115
-0.5998424888 -8.2547550201 1.0215796232
-0.6327642798 -8.3070363998 1.0283490419
-0.6630395055 -8.3395185471 1.0326569080
-0.6949156523 -8.4066305161 1.0412727594
-0.8414303064 -9.7536973953 1.2092794180
-0.8292801380 -9.1968698502 1.1403535604
-0.8544766903 -9.1198101044 1.1311224699
-0.9101704955 -9.3637199402 1.1618928909
-0.9977458715 -9.9085235596 1.2302033901
-1.0612536669 -10.2012977600 1.2671279907
-1.1040394306 -10.2815980911 1.2775899172
-1.1459124088 -10.3319330215 1.2843593359
-1.1909574270 -10.4067516327 1.2942059040
-1.2226446867 -10.3631067276 1.2892825603
-1.2588120699 -10.3587751389 1.2892825603
-1.2826966047 -10.2558403015 1.2769744396
-0.9591082931 -7.4458951950 0.9261910915
-0.9799117446 -7.4031453133 0.9212678075
-1.0117306709 -7.4439353943 0.9268065095
-1.5831532478 -10.8159284592 1.3508235216
-1.6289654970 -10.8643188477 1.3575930595
-1.6331034899 -10.6378469467 1.3298996687
-1.8698217869 -11.9066638947 1.4899060726
-1.9027392864 -11.8461704254 1.4831366539
-1.2147499323 -7.2274074554 0.9040364027
-2.0509302616 -11.9674348831 1.5009834766
-2.0935461521 -11.9650917053 1.5015989542
-2.1231162548 -11.8893194199 1.4929832220
-2.1956582069 -12.0527057648 1.5145224333
-1.3361792564 -7.1807117462 0.9009593129
-1.3547872305 -7.1418743134 0.8966514468
-1.3947218657 -7.2150607109 0.9064980149
-1.4179878235 -7.2004103661 0.9052672386
-1.4421415329 -7.1905508041 0.9046518207
-1.4553610086 -7.1271247864 0.8972668648
-1.4681552649 -7.0636944771 0.8898819685
-1.4897341728 -7.0439600945 0.8880357146
-1.5319948196 -7.1211967468 0.8984977007
-1.5621290207 -7.1400461197 0.9015747309
-1.5795247555 -7.1006393433 0.8972668648
-1.5803014040 -6.9885897636 0.8837278485
-1.6002559662 -6.9636836052 0.8812662363
-1.6234290600 -6.9532227516 0.8806508183
-1.6545400620 -6.9764866829 0.8843432665
-3.1775712967 -12.4268321991 1.5859099627
-3.2769117355 -12.6318225861 1.6136033535
-3.2507441044 -12.3617219925 1.5803713799
-3.4499299526 -12.9454717636 1.6566821337
-3.6075539589 -13.3501377106 1.7102226019
-1.8537999392 -6.7565526962 0.8640347719
-1.8760470152 -6.7452588081 0.8634193540
-3.9660181999 -14.0902566910 1.8105344772
-4.0070228577 -14.0476932526 1.8068418503
-4.0560331345 -14.0336208344 1.8068418503
-4.1217083931 -14.0765275955 1.8142268658
-3.6395204067 -12.2684211731 1.5822174549
-4.2056193352 -13.9998826981 1.8080728054
-4.2284994125 -13.8996582031 1.7969954014
-4.2949852943 -13.9259986877 1.8025341034
-4.3435692787 -13.9109220505 1.8025341034
-4.3846316338 -13.8720169067 1.7994570732
-3.6295716763 -11.3420953751 1.4720592499
-3.8096008301 -11.7637128830 1.5286769867
-2.1401250362 -6.4469513893 0.8375721574
-2.1689202785 -6.4582619667 0.8400338292
-2.1898584366 -6.4459519386 0.8394183517
-2.2107365131 -6.4335751534 0.8388029933
-2.2299304008 -6.4164419174 0.8375721574
-2.2495543957 -6.4043292999 0.8369567394
-2.2691235542 -6.3921570778 0.8363413811
-2.2897493839 -6.3795261383 0.8357259631
-2.3103156090 -6.3668284416 0.8351105452
-2.3291151524 -6.3494052887 0.8338797092
-2.2255964279 -6.0015101433 0.7889548540
-2.2260119915 -5.9325075150 0.7809544802
-2.2449514866 -5.9200596809 0.7803390622
-2.1486670971 -5.6062850952 0.7397220731
-1.8571271896 -4.7933611870 0.6326408386
-1.8720434904 -4.7822270393 0.6320254207
-1.8869048357 -4.7710475922 0.6314100623
-1.8980387449 -4.7506022453 0.6295638084
-1.9146096706 -4.7439479828 0.6295638084
-1.9292893410 -4.7326388359 0.6289483309
-1.9439131021 -4.7212858200 0.6283329725
-1.9584808350 -4.7098879814 0.6277175546
-1.9729933739 -4.6984457970 0.6271021366
-1.9874492884 -4.6869597435 0.6264867187
-2.0018498898 -4.6754302979 0.6258713603
-2.0161933899 -4.6638574600 0.6252559423
-2.0324606895 -4.6567912102 0.6252559423
-2.0467078686 -4.6451253891 0.6246405244
-2.0629096031 -4.6379528046 0.6246405244
-2.0790870190 -4.6307234764 0.6246405244
-2.0931947231 -4.6189160347 0.6240251064
-2.1051862240 -4.6025528908 0.6227943301
-2.1191647053 -4.5906686783 0.6221788526
-2.1309945583 -4.5742440224 0.6209480762
-2.1448426247 -4.5622844696 0.6203326583
-2.1586325169 -4.5502843857 0.6197172403
-2.1723647118 -4.5382437706 0.6191018224
-2.1860399246 -4.5261631012 0.6184864640
-2.1996567249 -4.5140419006 0.6178710461
-2.2154006958 -4.5063362122 0.6178710461
-2.2289168835 -4.4941277504 0.6172556281
-2.2423748970 -4.4818801880 0.6166402102
-2.2580060959 -4.4740252495 0.6166402102
-2.2691164017 -4.4572677612 0.6154093742
-2.2846617699 -4.4493198395 0.6154093742
-2.3252294064 -4.4898114204 0.6221788526
-2.3844492435 -4.5652780533 0.6338716745
-2.4003708363 -4.5569267273 0.6338716745
-2.3767650127 -4.4739851952 0.6234097481
-2.3713200092 -4.4262742996 0.6178710461
-2.3867557049 -4.4179701805 0.6178710461
-2.3974242210 -4.4008922577 0.6166402102
-2.4127719402 -4.3924965858 0.6166402102
-2.4256901741 -4.3797049522 0.6160247922
-2.4409637451 -4.3712110519 0.6160247922
-2.4562070370 -4.3626637459 0.6160247922
-2.4714205265 -4.3540635109 0.6160247922
-2.4841442108 -4.3411006927 0.6154093742
-2.4992821217 -4.3324031830 0.6154093742
-2.5143902302 -4.3236522675 0.6154093742
-2.5269620419 -4.3105659485 0.6147939563
-2.5419931412 -4.3017191887 0.6147939563
-2.5569937229 -4.2928195000 0.6147939563
-2.5694129467 -4.2796106339 0.6141785383
-2.5843362808 -4.2706155777 0.6141785383
-2.5992274284 -4.2615685463 0.6141785383
-2.6114928722 -4.2482399940 0.6135631204
-2.6263065338 -4.2390980721 0.6135631204
-2.6410875320 -4.2299046516 0.6135631204
-2.6479220390 -4.2080526352 0.6117169261
-3.4854967594 -5.4572048187 0.7981859446
-3.5098893642 -5.4533543587 0.7994167805
-3.5450835228 -5.4660606384 0.8031092286
-3.5668537617 -5.4578084946 0.8037246466
-3.5858829021 -5.4453244209 0.8037246466
-3.6021282673 -5.4286375046 0.8031092286
-3.6210563183 -5.4160304070 0.8031092286
-3.6399393082 -5.4033579826 0.8031092286
-3.6559958458 -5.3865113258 0.8024938703
-3.6757137775 -5.3730754852 0.8024938703
-3.6935107708 -5.3608570099 0.8024938703
-3.7140679359 -5.3466353416 0.8024938703
-3.7298669815 -5.3295702934 0.8018784523
-3.7484476566 -5.3165183067 0.8018784523
-3.7669825554 -5.3034014702 0.8018784523
-3.7854723930 -5.2902197838 0.8018784523
-3.8039155006 -5.2769742012 0.8018784523
-3.8514366150 -5.3038372993 0.8080325723
-3.8904113770 -5.3184113503 0.8123403788
-3.9236538410 -5.3247838020 0.8154174685
-3.9510800838 -5.3230152130 0.8172636628
-3.9785408974 -5.3211197853 0.8191098571
-4.0060377121 -5.3190975189 0.8209561706
-4.0305714607 -5.3129925728 0.8221869469
-4.0521025658 -5.3028359413 0.8228023648
-4.0736117363 -5.2925934792 0.8234177828
-4.0950984955 -5.2822656631 0.8240331411
-4.1165633202 -5.2718520164 0.8246485591
-4.1349401474 -5.2574505806 0.8246485591
-4.1563448906 -5.2468771935 0.8252639771
-4.1746339798 -5.2323369980 0.8252639771
-4.1928739548 -5.2177319527 0.8252639771
-4.2110614777 -5.2030644417 0.8252639771
-4.2291975021 -5.1883339882 0.8252639771
-4.2472825050 -5.1735396385 0.8252639771
-4.2653150558 -5.1586828232 0.8252639771
-4.2832975388 -5.1437616348 0.8252639771
-4.3012261391 -5.1287789345 0.8252639771
-4.3191022873 -5.1137337685 0.8252639771
-4.3369259834 -5.0986266136 0.8252639771
-4.3579220772 -5.0872278214 0.8258793950
-4.3756546974 -5.0719838142 0.8258793950
-4.3640689850 -5.0229449272 0.8203406930
-4.3260793686 -4.9441542625 0.8098787665
-4.3203682899 -4.9029450417 0.8055709004
-4.3275847435 -4.8766922951 0.8037246466
-4.3445820808 -4.8615555763 0.8037246466
-4.3648419380 -4.8500518799 0.8043400645
-4.3817448616 -4.8347864151 0.8043400645
-4.4019365311 -4.8231296539 0.8049554825
-4.4221000671 -4.8113913536 0.8055709004
-4.4422364235 -4.7995686531 0.8061862588
-4.4606328011 -4.7824764252 0.8061862588
-4.4806933403 -4.7704968452 0.8068016768
-4.4973182678 -4.7548274994 0.8068016768
-4.5173072815 -4.7426958084 0.8074170947
-4.5372667313 -4.7304825783 0.8080325723
-4.5537524223 -4.7146148682 0.8080325723
-4.5736379623 -4.7022504807 0.8086479306
-4.5934934616 -4.6898045540 0.8092633486
-4.6098356247 -4.6737418175 0.8092633486
-4.6296157837 -4.6611456871 0.8098787665
-4.6493649483 -4.6484670639 0.8104941845
-4.6690807343 -4.6357083321 0.8111095428
-4.6887645721 -4.6228690147 0.8117249608
-4.7084155083 -4.6099486351 0.8123403788
-4.7280330658 -4.5969471931 0.8129557967
-4.7511854172 -4.5873126984 0.8141865730
-4.7707481384 -4.5741372108 0.8148020506
-4.7902765274 -4.5608811378 0.8154174685
-4.8097701073 -4.5475440025 0.8160328269
-4.8292293549 -4.5341267586 0.8166482449
-4.8486542702 -4.5206274986 0.8172636628
-4.8680429459 -4.5070490837 0.8178790808
-4.8873958588 -4.4933900833 0.8184944391
-4.9067125320 -4.4796514511 0.8191098571
-4.9259929657 -4.4658327103 0.8197252750
-4.9452376366 -4.4519324303 0.8203406930
-4.9644441605 -4.4379534721 0.8209561706
-4.9836130142 -4.4238939285 0.8215715289
-5.0027446747 -4.4097552299 0.8221869469
-5.0218381882 -4.3955368996 0.8228023648
-5.0408945084 -4.3812379837 0.8234177828
-5.0599102974 -4.3668599129 0.8240331411
-5.0788879395 -4.3524031639 0.8246485591
-5.0978260040 -4.3378667831 0.8252639771
-5.1205120087 -4.3264565468 0.8264947534
-5.1393828392 -4.3117475510 0.8271101713
-5.1582121849 -4.2969608307 0.8277256489
-5.1770009995 -4.2820949554 0.8283410668
-5.1957483292 -4.2671499252 0.8289564252
-5.2144546509 -4.2521266937 0.8295718431
-5.2331204414 -4.2370233536 0.8301872611
-5.2556080818 -4.2249541283 0.8314180374
-5.2756690979 -4.2078399658 0.8320334554
-5.2980999947 -4.1955661774 0.8332642913
-5.3166108131 -4.1801166534 0.8338797092
-5.3389878273 -4.1676459312 0.8351105452
-5.3574223518 -4.1520271301 0.8357259631
-5.3797445297 -4.1393570900 0.8369567394
-5.3981013298 -4.1235685349 0.8375721574
-5.4164137840 -4.1077022552 0.8381875753
-5.4386425018 -4.0947461128 0.8394183517
-5.4568743706 -4.0787105560 0.8400338292
-5.4790449142 -4.0655565262 0.8412646651
-5.4971952438 -4.0493521690 0.8418800235
-5.5193028450 -4.0360031128 0.8431108594
-5.5373706818 -4.0196309090 0.8437262774
-5.5594143867 -4.0060853958 0.8449570537
-5.5814328194 -3.9924337864 0.8461878896
-5.5993781090 -3.9758024216 0.8468033075
-5.6213293076 -3.9619565010 0.8480341434
-5.6391882896 -3.9451582432 0.8486495614
-5.6610717773 -3.9311165810 0.8498803377
-5.6829276085 -3.9169688225 0.8511111736
-5.7047514915 -3.9027175903 0.8523419499
-5.7306489944 -3.8911523819 0.8541882634
-5.7524218559 -3.8766772747 0.8554190397
-5.7796344757 -3.8628418446 0.8572652340
-5.8013491631 -3.8481359482 0.8584960699
-5.8271741867 -3.8360552788 0.8603423238
-5.8488330841 -3.8211255074 0.8615731597
-5.8662967682 -3.8033885956 0.8621885180
-5.8878788948 -3.7882647514 0.8634193540
-5.9094266891 -3.7730360031 0.8646501303
-5.9309411049 -3.7577016354 0.8658810258
-5.9524192810 -3.7422645092 0.8671118617
-5.9738616943 -3.7267229557 0.8683426380
-5.9952683449 -3.7110776901 0.8695734739
-6.0208644867 -3.6979279518 0.8714196682
-6.0422072411 -3.6820576191 0.8726505041
-6.0635113716 -3.6660852432 0.8738813400
-6.0890312195 -3.6525645256 0.8757275343
-6.1102681160 -3.6363694668 0.8769583702
-6.1314659119 -3.6200704575 0.8781891465
-6.1526255608 -3.6036663055 0.8794200420
-6.1737437248 -3.5871596336 0.8806508183
-6.1948218346 -3.5705499649 0.8818816543
-6.2201647758 -3.5563023090 0.8837278485
-6.2411699295 -3.5394706726 0.8849587440
-6.2621331215 -3.5225336552 0.8861895204
-6.2873849869 -3.5079157352 0.8880357146
-6.3082714081 -3.4907588959 0.8892665505
-6.3291139603 -3.4734988213 0.8904973269
-6.3542699814 -3.4585111141 0.8923436403
-6.3750338554 -3.4410281181 0.8935744166
-6.3957524300 -3.4234442711 0.8948052526
-6.4164252281 -3.4057571888 0.8960360289
-6.4414420128 -3.3902819157 0.8978822827
-6.4620318413 -3.3723745346 0.8991131186
-6.4869809151 -3.3566465378 0.9009593129
-6.4954080582 -3.3294470310 0.9003439546
-5.3276996613 -2.6365449429 0.7323371768
-5.3190593719 -2.6091737747 0.7298755050
-5.3013715744 -2.5775494576 0.7261831164
-5.3148040771 -2.5611867905 0.7267984748
-6.3978624344 -3.0568051338 0.8744967580
-6.7758536339 -3.1509895325 0.9218832254
-6.8003263474 -3.1335577965 0.9237294793
-6.8337845802 -3.1201214790 0.9268065095
-6.8536734581 -3.1003451347 0.9280373454
-6.8780341148 -3.0824983120 0.9298835993
-6.8978195190 -3.0625042915 0.9311144352
-6.9220895767 -3.0444104671 0.9329606295
-6.9463171959 -3.0261845589 0.9348068237
-6.9705014229 -3.0078263283 0.9366530776
-6.9900822639 -2.9873814583 0.9378839135
-7.0141716003 -2.9687752724 0.9397301078
-7.0346708298 -2.9456601143 0.9409609437
-7.0586566925 -2.9267978668 0.9428071976
-7.0734190941 -2.9040288925 0.9434226155
-7.0927033424 -2.8830637932 0.9446533918
-7.1119279861 -2.8619997501 0.9458842278
-4.5889759064 -1.8075817823 0.6067936420
-4.6091203690 -1.7969744205 0.6086398363
-4.6153650284 -1.7808748484 0.6086398363
-4.6122860909 -1.7612037659 0.6074090600
-4.6230459213 -1.7468509674 0.6080244780
-4.6291155815 -1.7307031155 0.6080244780
-4.6351284981 -1.7145341635 0.6080244780
-4.6457424164 -1.7000544071 0.6086398363
-4.6516485214 -1.6838276386 0.6086398363
-4.6341495514 -1.6591913700 0.6055628657
-4.6492638588 -1.6463277340 0.6067936420
-5.3309016228 -1.8467143774 0.6947972178
-5.4217848778 -1.8571144342 0.7058745623
-5.5269007683 -1.8716881275 0.7187981606
-5.6368865967 -1.8871310949 0.7323371768
-5.7430000305 -1.8982605934 0.7452607751
-5.8438982964 -1.9090998173 0.7575689554
-5.9402208328 -1.9177290201 0.7692617178
-6.0413990021 -1.9272204638 0.7815698981
-6.1095967293 -1.9255592823 0.7895702720
-6.1920642853 -1.9278833866 0.7994167805
-6.2556552887 -1.9238055944 0.8068016768
-6.3240394592 -1.9207530022 0.8148020506
-6.3924775124 -1.9172461033 0.8228023648
-6.4657244682 -1.9146955013 0.8314180374
-6.5342688560 -1.9102624655 0.8394183517
-6.6028604507 -1.9053740501 0.8474187255
-6.6667256355 -1.8986669779 0.8548036218
-6.7258477211 -1.8901911974 0.8615731597
-6.7897720337 -1.8826531172 0.8689580560
-6.8489394188 -1.8733806610 0.8757275343
-6.9081244469 -1.8637179136 0.8824970722
-6.9625301361 -1.8523854017 0.8886511326
-7.0217390060 -1.8419581652 0.8954206109
-7.0761570930 -1.8298923969 0.9015747309
-7.1305756569 -1.8174707890 0.9077288508
-7.1849923134 -1.8046914339 0.9138829112
-7.2345905304 -1.7903589010 0.9194216132
-7.2889962196 -1.7768805027 0.9255757332
-7.3385710716 -1.7618802786 0.9311144352
-7.3929572105 -1.7477022409 0.9372684956
-7.4425015450 -1.7320379019 0.9428071976
-7.4920258522 -1.7160487175 0.9483458400
-7.5421214104 -1.6971018314 0.9538845420
-7.5915951729 -1.6804457903 0.9594231844
-7.6410441399 -1.6634651423 0.9649618864
-7.6856155396 -1.6451156139 0.9698851705
-7.7350058556 -1.6275020838 0.9754238725
-7.7795081139 -1.6085557938 0.9803470969
-7.8239722252 -1.5893186331 0.9852704406
-7.8683958054 -1.5697903633 0.9901937246
-7.9127783775 -1.5499693155 0.9951170087
-7.9571175575 -1.5298594236 1.0000402927
-7.9965367317 -1.5085357428 1.0043481588
-8.0407819748 -1.4878615141 1.0092713833
-8.0800981522 -1.4660077095 1.0135792494
-8.1242446899 -1.4447672367 1.0185024738
-8.1634531021 -1.4223836660 1.0228103399
-8.2074947357 -1.4005815983 1.0277335644
-8.2465896606 -1.3776688576 1.0320415497
-8.2860956192 -1.3516070843 1.0363494158
-8.3250598907 -1.3281687498 1.0406572819
-8.3639612198 -1.3044726849 1.0449651480
-8.4027976990 -1.2805234194 1.0492730141
-8.4415683746 -1.2563188076 1.0535807610
-8.4753627777 -1.2311428785 1.0572733879
-8.5139961243 -1.2064453363 1.0615812540
-8.5525598526 -1.1814906597 1.0658890009
-8.5861349106 -1.1556189060 1.0695815086
-8.6245527267 -1.1301748753 1.0738893747
-8.6628990173 -1.1044765711 1.0781972408
-8.6962442398 -1.0779110193 1.0818897486
-8.7344360352 -1.0517199039 1.0861976147
-8.7676229477 -1.0246984959 1.0898900032
-8.8056564331 -0.9980199933 1.0941978693
-8.8386793137 -0.9705439806 1.0978903770
-8.8765506744 -0.9433767200 1.1021982431
-8.9044675827 -0.9149343967 1.1052752733
-8.9322948456 -0.8863110542 1.1083523035
-8.9600296021 -0.8575044870 1.1114293337
-8.9827318192 -0.8280568123 1.1138910055
-9.0102787018 -0.7989020944 1.1169680357
-9.0377311707 -0.7695627213 1.1200450659
-9.0700349808 -0.7404504418 1.1237375736
-9.1121377945 -0.7119005919 1.1286607981
-9.1294107437 -0.6812055111 1.1305069923
-9.6141424179 -0.6501892805 1.1902017593
-9.6510143280 -0.6188676357 1.1945096254
-10.3139495850 -0.5894663930 1.2763590813
-10.3607301712 -0.5522586703 1.2818977833
-10.3972845078 -0.5178353786 1.2862056494
-10.4436378479 -0.4836247861 1.2917443514
-10.4997930527 -0.4495291114 1.2985138893
-10.5508785248 -0.4148497880 1.3046678305
-10.6018495560 -0.3798193634 1.3108220100
-10.6477441788 -0.3442752957 1.3163607121
-10.6984806061 -0.3085581064 1.3225147724
-10.7490959167 -0.2724936903 1.3286689520
-10.7995882034 -0.2360796779 1.3348228931
-10.8499574661 -0.1993164718 1.3409769535
-10.9002008438 -0.1622044891 1.3471311331
-10.9552793503 -0.1248001605 1.3539006710
-11.0003042221 -0.0869330466 1.3594393730
-11.1147689819 -0.0102954609 1.3735938072
-11.1593942642 0.0285953302 1.3791323900
-11.2137823105 0.0717681348 1.3859019279
-11.2630815506 0.1113781556 1.3920559883
-11.4448556900 0.2329704762 1.4148261547
-11.4935789108 0.2740788460 1.4209803343
-11.5471134186 0.3156634867 1.4277497530
-11.6203374863 0.3582309783 1.4369809628
-11.6686067581 0.4004704654 1.4431349039
-11.7315988541 0.4436072111 1.4511353970
-11.7894725800 0.4869859219 1.4585201740
-11.8471870422 0.5307740569 1.4659051895
-11.9096937180 0.5752113461 1.4739054441
-11.9720344543 0.6200883389 1.4819058180
-12.0342054367 0.6654074788 1.4899060726
-12.1011600494 0.7114573121 1.4985219240
-12.1629848480 0.7576761246 1.5065221786
-12.2345371246 0.8049858212 1.5157532692
-12.2811555862 0.8510962725 1.5219074488
-12.3919372559 0.9021987915 1.5360617638
-12.4975633621 0.9537095428 1.5496008396
-12.5535154343 1.0020408630 1.5569857359
-12.6583614349 1.0592942238 1.5705246925
-12.6694173813 1.1047635078 1.5723710060
-12.7297286987 1.1547821760 1.5803713799
-12.7602024078 1.2024540901 1.5846792459
-12.7509880066 1.2465066910 1.5840637684
-12.7169380188 1.2880197763 1.5803713799
-12.6876878738 1.3298288584 1.5772942305
-12.6583023071 1.3714461327 1.5742172003
-12.6287803650 1.4128744602 1.5711400509
-12.5991249084 1.4541134834 1.5680631399
-12.5693349838 1.4951628447 1.5649861097
-12.5394115448 1.5360250473 1.5619089603
-12.5093574524 1.5766935349 1.5588320494
-12.4791717529 1.6171706915 1.5557549000
-12.4488573074 1.6574566364 1.5526778698
-12.4233283997 1.6982204914 1.5502161980
-12.3927545547 1.7381426096 1.5471391678
-12.3620538712 1.7778687477 1.5440621376
-12.3312253952 1.8174016476 1.5409851074
-12.3051805496 1.8574796915 1.5385234356
-12.2741003036 1.8966423273 1.5354464054
-12.2477998734 1.9363868237 1.5329848528
-12.2164716721 1.9751775265 1.5299077034
-12.1892156601 2.0188362598 1.5274461508
-12.1576299667 2.0572423935 1.5243690014
-12.1308155060 2.0962960720 1.5219074488
-12.1038761139 2.1351871490 1.5194456577
-12.0768146515 2.1739161015 1.5169841051
-12.0447483063 2.2115912437 1.5139071941
-12.0174446106 2.2499768734 1.5114454031
-11.9900197983 2.2881987095 1.5089837313
-11.9576034546 2.3253118992 1.5059067011
-11.9299430847 2.3631885052 1.5034451485
-11.9021625519 2.4009037018 1.5009834766
-11.8791265488 2.4394464493 1.4991371632
-11.8511095047 2.4768450260 1.4966756105
-11.8229761124 2.5140774250 1.4942139387
-11.7947273254 2.5511438847 1.4917523861
-11.7712097168 2.5891106129 1.4899060726
-11.7427291870 2.6258604527 1.4874445200
-11.7189741135 2.6635406017 1.4855982065
-11.6902656555 2.6999726295 1.4831366539
-11.6614446640 2.7362365723 1.4806749821
-11.6373386383 2.7734837532 1.4788286686
-11.6082944870 2.8094277382 1.4763671160
-11.5839595795 2.8463847637 1.4745208025
-11.5546932220 2.8820075989 1.4720592499
-11.5291109085 2.9227015972 1.4702130556
-11.5044202805 2.9592251778 1.4683667421
-11.4748134613 2.9943647385 1.4659051895
-11.4498987198 3.0305976868 1.4640588760
-11.4248723984 3.0666935444 1.4622126818
-11.3997325897 3.1026515961 1.4603664875
-11.3744812012 3.1384713650 1.4585201740
-11.3491191864 3.1741561890 1.4566740990
-11.3236465454 3.2096986771 1.4548277855
-11.2980642319 3.2451021671 1.4529814720
-11.2723731995 3.2803666592 1.4511353970
-11.2465734482 3.3154909611 1.4492890835
-11.2206649780 3.3504781723 1.4474427700
-11.1946516037 3.3853223324 1.4455966949
-11.1685304642 3.4200253487 1.4437503815
-11.1423053741 3.4545876980 1.4419041872
-11.1207084656 3.4904921055 1.4406733513
-11.0930366516 3.5286607742 1.4388271570
-11.0664796829 3.5628082752 1.4369809628
-11.0445384979 3.5983452797 1.4357501268
-11.0177707672 3.6322209835 1.4339038134
-10.9909009933 3.6659536362 1.4320576191
-10.9686346054 3.7011277676 1.4308269024
-10.9415569305 3.7345929146 1.4289805889
-10.9190721512 3.7695283890 1.4277497530
-10.8917913437 3.8027193546 1.4259035587
-10.8690919876 3.8374154568 1.4246727228
-10.8416090012 3.8703331947 1.4228264093
-10.8186969757 3.9047915936 1.4215956926
-10.7956762314 3.9391338825 1.4203648567
-10.7725477219 3.9733631611 1.4191340208
-10.7493124008 4.0074791908 1.4179031849
-10.7213268280 4.0397338867 1.4160569906
-10.6978826523 4.0736088753 1.4148261547
-10.6743345261 4.1073660851 1.4135953188
-10.6506814957 4.1410088539 1.4123644829
-10.6223049164 4.1727247238 1.4105182886
-10.5984487534 4.2061209679 1.4092874527
-10.5744876862 4.2394042015 1.4080566168
-10.5504245758 4.2725691795 1.4068257809
-10.5247564316 4.3092923164 1.4055950642
-10.5004777908 4.3422155380 1.4043642282
-10.4806776047 4.3769321442 1.4037487507
-10.4561891556 4.4096369743 1.4025179148
-10.4316005707 4.4422245026 1.4012870789
-10.4069118500 4.4746971130 1.4000563622
-10.3821239471 4.5070486069 1.3988255262
-10.3572368622 4.5392813683 1.3975946903
-10.3367900848 4.5734009743 1.3969792128
-10.3117008209 4.6054124832 1.3957484961
-10.2865123749 4.6373066902 1.3945176601
-10.2612276077 4.6690783501 1.3932868242
-10.2403564453 4.7027988434 1.3926714659
-10.2148723602 4.7343463898 1.3914405107
-10.1937894821 4.7678737640 1.3908252716
-10.1681070328 4.7991981506 1.3895944357
-10.1423311234 4.8303985596 1.3883635998
-10.1209344864 4.8636245728 1.3877481222
-10.0949640274 4.8945975304 1.3865172863
-10.0733594894 4.9276270866 1.3859019279
-10.0471954346 4.9583740234 1.3846710920
-10.0253839493 4.9912052155 1.3840557337
-10.0034646988 5.0239443779 1.3834402561
-9.9814395905 5.0565915108 1.3828248978
-9.9548892975 5.0868902206 1.3815940619
-9.9308729172 5.1228041649 1.3809785843
-9.9085264206 5.1551527977 1.3803633451
-9.8860769272 5.1874041557 1.3797478676
-9.8635225296 5.2195620537 1.3791323900
-9.8408641815 5.2516260147 1.3785170317
-9.8137311935 5.2812457085 1.3772861958
-9.7908735275 5.3131070137 1.3766707182
-9.7679138184 5.3448710442 1.3760553598
-9.7448520660 5.3765397072 1.3754400015
-9.7216882706 5.4081120491 1.3748246431
-9.6984224319 5.4395880699 1.3742091656
-9.6750535965 5.4709706306 1.3735938072
-9.6558980942 5.5047087669 1.3735938072
-9.6323213577 5.5359096527 1.3729783297
-9.6086444855 5.5670127869 1.3723628521
-9.5848674774 5.5980181694 1.3717474937
-9.5609893799 5.6289281845 1.3711320162
-9.5370149612 5.6597371101 1.3705166578
-9.5129423141 5.6904478073 1.3699012995
-9.4930210114 5.7236189842 1.3699012995
-9.4687423706 5.7541456223 1.3692859411
-9.4443655014 5.7845749855 1.3686704636
-9.4220857620 5.8207936287 1.3686704636
-9.3974952698 5.8510284424 1.3680551052
-9.3770141602 5.8837957382 1.3680551052
-9.3522243500 5.9138412476 1.3674396276
-9.3273382187 5.9437856674 1.3668242693
-9.3065347672 5.9763073921 1.3668242693
-9.2856149673 6.0087585449 1.3668242693
-9.2604265213 6.0384259224 1.3662087917
-9.2392921448 6.0707135201 1.3662087917
-9.2139072418 6.1001901627 1.3655933142
-9.1925573349 6.1323151588 1.3655933142
-9.1710948944 6.1643676758 1.3655933142
-9.1495208740 6.1963424683 1.3655933142
-9.1237373352 6.2254476547 1.3649780750
-9.1019515991 6.2572574615 1.3649780750
-9.0800542831 6.2889904976 1.3649780750
-9.0580444336 6.3206491470 1.3649780750
-9.0359268188 6.3522286415 1.3649780750
-9.0136985779 6.3837308884 1.3649780750
