-0.4879245162 0.6526726484 -0.3605269790
-0.4829173684 0.6507490873 -0.3584186137
-0.4779294729 0.6487987041 -0.3563102782
-0.4756618738 0.6504630446 -0.3563102782
-0.4707005918 0.6484683752 -0.3542019427
-0.4684341848 0.6501074433 -0.3542019427
-0.4661620855 0.6517385840 -0.3542019427
-0.4638841152 0.6533619165 -0.3542019427
-0.4642372727 0.6586654186 -0.3563102782
-0.4619353116 0.6602818966 -0.3563102782
-0.4622385204 0.6655968428 -0.3584186137
-0.4599123895 0.6672062874 -0.3584186137
-0.4575804472 0.6688076854 -0.3584186137
-0.4578149915 0.6741345525 -0.3605269790
-0.4554590583 0.6757284999 -0.3605269790
-0.4530975819 0.6773141623 -0.3605269790
-0.4507305920 0.6788916588 -0.3605269790
-0.4458384514 0.6766917109 -0.3584186137
-0.4434736967 0.6782438159 -0.3584186137
-0.4386104047 0.6760009527 -0.3563102782
-0.4362480938 0.6775278449 -0.3563102782
-0.4338804483 0.6790465117 -0.3563102782
-0.4315073490 0.6805569530 -0.3563102782
-0.4291291833 0.6820590496 -0.3563102782
-0.4267457724 0.6835528016 -0.3563102782
-0.4267703891 0.6888763309 -0.3584186137
-0.4243632257 0.6903618574 -0.3584186137
-0.4219506681 0.6918390393 -0.3584186137
-0.4171602428 0.6894444823 -0.3563102782
-0.4147511125 0.6908964515 -0.3563102782
-0.4123369455 0.6923399568 -0.3563102782
-0.4099177718 0.6937750578 -0.3563102782
-0.4074933827 0.6952017546 -0.3563102782
-0.4050642550 0.6966199279 -0.3563102782
-0.4026301503 0.6980296373 -0.3563102782
-0.4001911581 0.6994307637 -0.3563102782
-0.3997653425 0.7048909664 -0.3584186137
-0.3973024189 0.7062820792 -0.3584186137
-0.3948344588 0.7076647282 -0.3584186137
-0.3923618793 0.7090386152 -0.3584186137
-0.3898845315 0.7104038596 -0.3584186137
-0.3852085471 0.7077928782 -0.3563102782
-0.3827355802 0.7091331482 -0.3563102782
-0.3802577853 0.7104648948 -0.3563102782
-0.3756233156 0.7077975869 -0.3542019427
-0.3731504083 0.7091044188 -0.3542019427
-0.3706729412 0.7104026079 -0.3542019427
-0.3681909442 0.7116921544 -0.3542019427
-0.3657042682 0.7129731178 -0.3542019427
-0.3632133603 0.7142453194 -0.3542019427
-0.3607179821 0.7155087590 -0.3542019427
-0.3582182527 0.7167635560 -0.3542019427
-0.3557141125 0.7180095911 -0.3542019427
-0.3532054722 0.7192469239 -0.3542019427
-0.3506927192 0.7204754353 -0.3542019427
-0.3481757045 0.7216951847 -0.3542019427
-0.3456544280 0.7229061127 -0.3542019427
-0.3431289494 0.7241082788 -0.3542019427
-0.3405990899 0.7253016829 -0.3542019427
-0.3380652964 0.7264861465 -0.3542019427
-0.3355273604 0.7276617885 -0.3542019427
-0.3329853415 0.7288285494 -0.3542019427
-0.3304392695 0.7299864292 -0.3542019427
-0.3278889656 0.7311354876 -0.3542019427
-0.3253348768 0.7322755456 -0.3542019427
-0.3227767944 0.7334067225 -0.3542019427
-0.3202148080 0.7345289588 -0.3542019427
-0.3176489174 0.7356421947 -0.3542019427
-0.3150789440 0.7367466092 -0.3542019427
-0.3107091486 0.7336791754 -0.3520936072
-0.3081462681 0.7347592711 -0.3520936072
-0.3038125336 0.7316551805 -0.3499852419
-0.3012567759 0.7327112556 -0.3499852419
-0.2986971438 0.7337583899 -0.3499852419
-0.2944107652 0.7306030989 -0.3478769064
-0.2918587327 0.7316263318 -0.3478769064
-0.2893031538 0.7326406240 -0.3478769064
-0.2864878774 0.7337461114 -0.3478769064
-0.2855879962 0.7389593124 -0.3499852419
-0.2830068469 0.7399516702 -0.3499852419
-0.2820556760 0.7451643348 -0.3520936072
-0.2794528902 0.7461443543 -0.3520936072
-0.2768466771 0.7471152544 -0.3520936072
-0.2742371261 0.7480770350 -0.3520936072
-0.2700498104 0.7447781563 -0.3499852419
-0.2674482465 0.7457163334 -0.3499852419
-0.2648436427 0.7466453314 -0.3499852419
-0.2622357607 0.7475652695 -0.3499852419
-0.2596247196 0.7484760284 -0.3499852419
-0.2555105388 0.7450993061 -0.3478769064
-0.2529079616 0.7459867001 -0.3478769064
-0.2503024936 0.7468649745 -0.3478769064
-0.2476939410 0.7477341294 -0.3478769064
-0.2450823933 0.7485941648 -0.3478769064
-0.2424678653 0.7494450808 -0.3478769064
-0.2398501784 0.7502869368 -0.3478769064
-0.2372297794 0.7511196136 -0.3478769064
-0.2346064597 0.7519431114 -0.3478769064
-0.2319802940 0.7527574301 -0.3478769064
-0.2293513119 0.7535626292 -0.3478769064
-0.2267193347 0.7543586493 -0.3478769064
-0.2240847945 0.7551454306 -0.3478769064
-0.2214475125 0.7559230328 -0.3478769064
-0.2175183594 0.7523447871 -0.3457685709
-0.2148909122 0.7530995011 -0.3457685709
-0.2122606337 0.7538450360 -0.3457685709
-0.2108715624 0.7589412332 -0.3478769064
-0.2082211077 0.7596727014 -0.3478769064
-0.2067812383 0.7647632957 -0.3499852419
-0.2053083628 0.7698530555 -0.3520936072
-0.2038022429 0.7749418616 -0.3542019427
-0.1975940913 0.7625058889 -0.3478769064
-0.1914752722 0.7500361204 -0.3415518701
-0.1854459196 0.7375330329 -0.3352268338
-0.1795062870 0.7249972224 -0.3289017975
-0.1725502312 0.7080323696 -0.3204684258
-0.1657152325 0.6910279393 -0.3120350540
-0.1600760221 0.6783890128 -0.3057099879
-0.1555870473 0.6701274514 -0.3014933169
-0.1522025913 0.6662546396 -0.2993849814
-0.1478176266 0.6579511166 -0.2951682806
-0.1445065588 0.6540440917 -0.2930599451
-0.1412242204 0.6501220465 -0.2909516096
-0.1369882226 0.6417592168 -0.2867349088
-0.1337800622 0.6378040910 -0.2846265733
-0.1277451366 0.6205364466 -0.2761931717
-0.1227691993 0.6076705456 -0.2698681355
-0.1151215434 0.5814601183 -0.2572180927
-0.1139964759 0.5863008499 -0.2593264282
-0.1119493991 0.5866951346 -0.2593264282
-0.1107750386 0.5915309787 -0.2614347637
-0.1095685884 0.5963656902 -0.2635431290
-0.1083294079 0.6011991501 -0.2656514645
-0.1012634486 0.5748283863 -0.2530013621
-0.0992564932 0.5751783252 -0.2530013621
-0.0948581398 0.5621317029 -0.2466763407
-0.0985859856 0.6074668765 -0.2677598000
-0.0987143368 0.6212212443 -0.2740848362
-0.0958112329 0.6170880795 -0.2719765007
-0.0920069739 0.6084980965 -0.2677598000
-0.0898822248 0.6088155508 -0.2677598000
-0.0879692137 0.6090949178 -0.2677598000
-0.0858424082 0.6093983054 -0.2677598000
-0.0830588415 0.6052081585 -0.2656514645
-0.0809456408 0.6054944396 -0.2656514645
-0.0782070607 0.6012827754 -0.2635431290
-0.0761075914 0.6015521288 -0.2635431290
-0.0734138489 0.5973193645 -0.2614347637
-0.0707509071 0.5930751562 -0.2593264282
-0.0681181848 0.5888197422 -0.2572180927
-0.0649701059 0.5800524354 -0.2530013621
-0.0624142960 0.5757731199 -0.2508930266
-0.0593743585 0.5669786334 -0.2466763407
-0.0568959713 0.5626762509 -0.2445680052
-0.0544480495 0.5583634973 -0.2424596548
-0.0520312339 0.5540406108 -0.2403513193
-0.0500968359 0.5542188287 -0.2403513193
-0.0477257147 0.5498776436 -0.2382429689
-0.0458061695 0.5500408411 -0.2382429689
-0.0432907939 0.5456969142 -0.2361346334
-0.0413855761 0.5458446741 -0.2361346334
-0.0391086563 0.5414673090 -0.2340262830
-0.0374071747 0.5415875316 -0.2340262830
-0.0349874124 0.5372061729 -0.2319179475
-0.0331121720 0.5373250246 -0.2319179475
-0.0312362425 0.5374373198 -0.2319179475
-0.0293602180 0.5375431180 -0.2319179475
-0.0272067711 0.5331169963 -0.2298095971
-0.0253455658 0.5332087278 -0.2298095971
-0.0232391525 0.5287668109 -0.2277012318
-0.0213931575 0.5288447142 -0.2277012318
-0.0193336140 0.5243874192 -0.2255928963
-0.0175029300 0.5244517326 -0.2255928963
-0.0154900877 0.5199795365 -0.2234845459
-0.0136750927 0.5200304389 -0.2234845459
-0.0117093362 0.5155437589 -0.2213762105
-0.0099098468 0.5155814886 -0.2213762105
-0.0081099607 0.5156129599 -0.2213762105
-0.0062071187 0.5111055374 -0.2192678601
-0.0045101899 0.5156570077 -0.2213762105
-0.0026388613 0.5111364126 -0.2192678601
-0.0007440301 0.5020756721 -0.2150511742
2.1889538765 -2.8101623058 -0.9175328016
2.1998903751 -2.8445487022 -0.9263552427
2.1810908318 -2.8407096863 -0.9225741625
2.1652841568 -2.8406181335 -0.9200534821
2.1524300575 -2.8443052769 -0.9187932014
2.1395764351 -2.8479368687 -0.9175328016
2.1267240047 -2.8515138626 -0.9162724614
2.1138722897 -2.8550355434 -0.9150121212
2.1038937569 -2.8623969555 -0.9150121212
2.0910315514 -2.8658189774 -0.9137517810
2.0820181370 -2.8723740578 -0.9137517810
2.0719788074 -2.8796241283 -0.9137517810
2.0619144440 -2.8868391514 -0.9137517810
2.0518248081 -2.8940191269 -0.9137517810
2.0417106152 -2.9011635780 -0.9137517810
2.0315711498 -2.9082727432 -0.9137517810
2.0214068890 -2.9153466225 -0.9137517810
2.0139670372 -2.9263665676 -0.9150121212
2.0037398338 -2.9333789349 -0.9150121212
1.9934883118 -2.9403553009 -0.9150121212
1.9832123518 -2.9472959042 -0.9150121212
1.9729123116 -2.9542007446 -0.9150121212
1.9625880718 -2.9610695839 -0.9150121212
1.9522401094 -2.9679021835 -0.9150121212
1.9418684244 -2.9746985435 -0.9150121212
1.9314728975 -2.9814589024 -0.9150121212
1.9210538864 -2.9881827831 -0.9150121212
1.9132198095 -2.9989457130 -0.9162724614
1.9027397633 -3.0056059361 -0.9162724614
1.8948165178 -3.0163226128 -0.9175328016
1.8842760324 -3.0229184628 -0.9175328016
1.8737125397 -3.0294773579 -0.9175328016
1.8631262779 -3.0359995365 -0.9175328016
1.8499948978 -3.0383555889 -0.9162724614
1.8393779993 -3.0447945595 -0.9162724614
1.8287384510 -3.0511968136 -0.9162724614
1.8180766106 -3.0575616360 -0.9162724614
1.8098570108 -3.0680530071 -0.9175328016
1.7991364002 -3.0743520260 -0.9175328016
1.7883940935 -3.0806133747 -0.9175328016
1.7800506353 -3.0910267830 -0.9187932014
1.7692500353 -3.0972216129 -0.9187932014
1.7584279776 -3.1033785343 -0.9187932014
1.7486697435 -3.1088874340 -0.9187932014
1.7367197275 -3.1155788898 -0.9187932014
1.7258336544 -3.1216223240 -0.9187932014
1.7160183191 -3.1270287037 -0.9187932014
1.7050924301 -3.1329996586 -0.9187932014
1.6941457987 -3.1389324665 -0.9187932014
1.6831786633 -3.1448268890 -0.9187932014
1.6721909046 -3.1506831646 -0.9187932014
1.6611827612 -3.1565010548 -0.9187932014
1.6501543522 -3.1622805595 -0.9187932014
1.6391057968 -3.1680214405 -0.9187932014
1.6302522421 -3.1780252457 -0.9200534821
1.6191488504 -3.1836967468 -0.9200534821
1.6080257893 -3.1893291473 -0.9200534821
1.5968830585 -3.1949226856 -0.9200534821
1.5878753662 -3.2048101425 -0.9213138819
1.5788183212 -3.2146730423 -0.9225741625
1.5697114468 -3.2245121002 -0.9238345623
1.5605548620 -3.2343263626 -0.9250949025
1.5513494015 -3.2441163063 -0.9263552427
1.5441730022 -3.2582502365 -0.9288759232
1.5369162560 -3.2723739147 -0.9313966632
1.5131969452 -3.2514162064 -0.9238345623
1.3844617605 -3.3659060001 -0.9376984239
1.3720476627 -3.3657608032 -0.9364380240
1.3766456842 -3.4108886719 -0.9477811456
1.3593263626 -3.4022011757 -0.9440001249
1.3456565142 -3.4024286270 -0.9427397847
1.3320012093 -3.4026019573 -0.9414793849
1.3183615208 -3.4027216434 -0.9402191043
1.3064755201 -3.4073028564 -0.9402191043
1.2928510904 -3.4073209763 -0.9389587045
1.2809495926 -3.4118130207 -0.9389587045
1.2690320015 -3.4162638187 -0.9389587045
1.2570995092 -3.4206726551 -0.9389587045
1.2451511621 -3.4250400066 -0.9389587045
1.2331881523 -3.4293653965 -0.9389587045
1.2195823193 -3.4290926456 -0.9376984239
1.2076048851 -3.4333291054 -0.9376984239
1.1956131458 -3.4375233650 -0.9376984239
1.1820262671 -3.4371025562 -0.9364380240
1.1700215340 -3.4412076473 -0.9364380240
1.1564543247 -3.4406864643 -0.9351776242
1.1444368362 -3.4447023869 -0.9351776242
1.1324057579 -3.4486761093 -0.9351776242
1.1188604832 -3.4480080605 -0.9339173436
1.1068180799 -3.4518926144 -0.9339173436
1.0947620869 -3.4557349682 -0.9339173436
1.0826923847 -3.4595353603 -0.9339173436
1.0706100464 -3.4632935524 -0.9339173436
1.0585139990 -3.4670097828 -0.9339173436
1.0478090048 -3.4753139019 -0.9351776242
1.0356715918 -3.4789502621 -0.9351776242
1.0235213041 -3.4825441837 -0.9351776242
1.0113588572 -3.4860956669 -0.9351776242
1.0005222559 -3.4942545891 -0.9364380240
0.9883191586 -3.4977257252 -0.9364380240
0.9761039615 -3.5011544228 -0.9364380240
0.9638764262 -3.5045404434 -0.9364380240
0.9529111385 -3.5125515461 -0.9376984239
0.9406439662 -3.5158565044 -0.9376984239
0.9283657670 -3.5191185474 -0.9376984239
0.9160763025 -3.5223376751 -0.9376984239
0.9037751555 -3.5255138874 -0.9376984239
0.8914635181 -3.5286471844 -0.9376984239
0.8803159595 -3.5364310741 -0.9389587045
0.8679663539 -3.5394823551 -0.9389587045
0.8556061387 -3.5424904823 -0.9389587045
0.8432350755 -3.5454554558 -0.9389587045
0.8308541775 -3.5483772755 -0.9389587045
0.8195560575 -3.5559694767 -0.9402191043
0.8071386218 -3.5588085651 -0.9402191043
0.7947112918 -3.5616042614 -0.9402191043
0.7822738886 -3.5643568039 -0.9402191043
0.7698273659 -3.5670657158 -0.9402191043
0.7583819628 -3.5744628906 -0.9414793849
0.7471486926 -3.5768277645 -0.9414793849
0.7346588373 -3.5794138908 -0.9414793849
0.7231231332 -3.5866982937 -0.9427397847
0.7105985284 -3.5892007351 -0.9427397847
0.6980656981 -3.5916593075 -0.9427397847
0.6864371896 -3.5988256931 -0.9440001249
0.6738709807 -3.6011996269 -0.9440001249
0.6612965465 -3.6035299301 -0.9440001249
0.6487135291 -3.6058163643 -0.9440001249
0.6361231208 -3.6080589294 -0.9440001249
0.6243547201 -3.6150243282 -0.9452604651
0.6117323637 -3.6171817780 -0.9452604651
0.5998994112 -3.6240673065 -0.9465208054
0.5872451067 -3.6261394024 -0.9465208054
0.5753477216 -3.6329450607 -0.9477811456
0.5626626015 -3.6349313259 -0.9477811456
0.5507012606 -3.6416561604 -0.9490414858
0.5379863381 -3.6435563564 -0.9490414858
0.5259612203 -3.6502003670 -0.9503018856
0.5132166147 -3.6520140171 -0.9503018856
0.5004653335 -3.6537833214 -0.9503018856
0.4877083600 -3.6555078030 -0.9503018856
0.4755753577 -3.6619851589 -0.9515621662
0.4627894461 -3.6636230946 -0.9515621662
0.4499983788 -3.6652162075 -0.9515621662
0.4372013807 -3.6667647362 -0.9515621662
0.4249623418 -3.6730742455 -0.9528225660
0.4121385217 -3.6745352745 -0.9528225660
0.3998384774 -3.6807608604 -0.9540828466
0.3869879842 -3.6821341515 -0.9540828466
0.3741322756 -3.6834626198 -0.9540828466
0.3612725139 -3.6847460270 -0.9540828466
0.3488704264 -3.6908011436 -0.9553432465
0.3359847069 -3.6919965744 -0.9553432465
0.3230953813 -3.6931469440 -0.9553432465
0.3102016449 -3.6942522526 -0.9553432465
0.2976993620 -3.7001347542 -0.9566035867
0.2847818732 -3.7011513710 -0.9566035867
0.2718604207 -3.7021229267 -0.9566035867
0.2589361370 -3.7030494213 -0.9566035867
0.2463356107 -3.7087581158 -0.9578639269
0.2333883345 -3.7095954418 -0.9578639269
0.2207318842 -3.7152171135 -0.9591242671
0.2077617347 -3.7159650326 -0.9591242671
0.1950495094 -3.7214992046 -0.9603846073
0.1820575595 -3.7221572399 -0.9603846073
0.1690638959 -3.7227702141 -0.9603846073
0.1560681611 -3.7233376503 -0.9603846073
0.1430700570 -3.7238597870 -0.9603846073
0.1302462965 -3.7291717529 -0.9616449475
0.1172279641 -3.7296035290 -0.9616449475
0.1043505594 -3.7348265648 -0.9629053473
0.0914380997 -3.7400050163 -0.9641656280
0.0783822015 -3.7403013706 -0.9641656280
0.0653258339 -3.7405521870 -0.9641656280
0.0523424856 -3.7455954552 -0.9654260278
-0.0449027866 -2.4730179310 -0.6339546442
-0.0540080406 -2.4970343113 -0.6402564049
-0.0626123920 -2.4919931889 -0.6389960647
-0.0713105574 -2.4917595387 -0.6389960647
-0.0798629597 -2.4866590500 -0.6377357244
-0.0883802846 -2.4815292358 -0.6364753246
-0.0968631133 -2.4763705730 -0.6352150440
-0.1053106636 -2.4711825848 -0.6339546442
-0.1137231961 -2.4659662247 -0.6326943636
-0.1221009046 -2.4607210159 -0.6314339638
-0.1304430664 -2.4554476738 -0.6301736236
-0.1387502253 -2.4501459599 -0.6289132833
-0.1470216513 -2.4448163509 -0.6276529431
-0.1544061452 -2.4395127296 -0.6263926029
-0.1626083404 -2.4341304302 -0.6251322627
-0.1711042374 -2.4335479736 -0.6251322627
-0.1792517900 -2.4281096458 -0.6238719225
-0.1873637885 -2.4226443768 -0.6226115823
-0.1954394877 -2.4171519279 -0.6213511825
-0.2034791559 -2.4116327763 -0.6200909019
-0.2114829719 -2.4060869217 -0.6188305020
-0.2194502652 -2.4005148411 -0.6175702214
-0.2273815274 -2.3949160576 -0.6163098216
-0.2352760881 -2.3892917633 -0.6150494814
-0.2431341410 -2.3836410046 -0.6137891412
-0.2509559393 -2.3779647350 -0.6125287414
-0.2587407529 -2.3722634315 -0.6112684608
-0.2664891481 -2.3665363789 -0.6100080609
-0.2742004395 -2.3607842922 -0.6087477207
-0.2818748057 -2.3550071716 -0.6074873805
-0.2895124853 -2.3492054939 -0.6062270403
-0.2971127927 -2.3433790207 -0.6049667001
-0.3046762943 -2.3375284672 -0.6037063599
-0.3122022450 -2.3316533566 -0.6024459600
-0.3196909428 -2.3257546425 -0.6011856794
-0.3271425068 -2.3198318481 -0.5999252796
-0.3345563710 -2.3138856888 -0.5986649990
-0.3419330120 -2.3079156876 -0.5974045992
-0.3499869406 -2.3067080975 -0.5974045992
-0.3573047221 -2.3006896973 -0.5961442590
-0.3645850420 -2.2946479321 -0.5948839188
-0.3718272746 -2.2885837555 -0.5936235785
-0.3790318966 -2.2824969292 -0.5923632383
-0.3861983120 -2.2763879299 -0.5911028981
-0.3941419125 -2.2750258446 -0.5911028981
-0.4012491107 -2.2688696384 -0.5898424983
-0.4091663659 -2.2674551010 -0.5898424983
-0.4162138402 -2.2612526417 -0.5885822177
-0.4241044223 -2.2597858906 -0.5885822177
-0.4310914576 -2.2535374165 -0.5873218179
-0.4380404055 -2.2472677231 -0.5860615373
-0.4449504912 -2.2409768105 -0.5848011374
-0.4518223703 -2.2346653938 -0.5835407972
-0.4586552680 -2.2283329964 -0.5822804570
-0.4654495120 -2.2219805717 -0.5810201168
-0.4722052515 -2.2156076431 -0.5797597766
-0.4799361825 -2.2139458656 -0.5797597766
-0.4866307676 -2.2075295448 -0.5784993768
-0.4932861626 -2.2010936737 -0.5772390366
-0.4999025464 -2.1946380138 -0.5759786963
-0.5064802170 -2.1881632805 -0.5747183561
-0.5130184293 -2.1816694736 -0.5734580159
-0.5195178390 -2.1751565933 -0.5721976757
-0.5259777308 -2.1686248779 -0.5709372759
-0.5323984027 -2.1620750427 -0.5696769953
-0.5399423838 -2.1602034569 -0.5696769953
-0.5463007092 -2.1536126137 -0.5684165955
-0.5538150668 -2.1516926289 -0.5684165955
-0.5601109266 -2.1450619698 -0.5671563148
-0.5675950646 -2.1430938244 -0.5671563148
-0.5738283992 -2.1364233494 -0.5658959150
-0.5800218582 -2.1297359467 -0.5646355748
-0.5874526501 -2.1276984215 -0.5646355748
-0.5935829878 -2.1209721565 -0.5633752346
-0.6009828448 -2.1188871861 -0.5633752346
-0.6070500612 -2.1121232510 -0.5621148944
-0.6144189835 -2.1099913120 -0.5621148944
-0.6204226017 -2.1031894684 -0.5608545542
-0.6277601719 -2.1010110378 -0.5608545542
-0.6336997747 -2.0941727161 -0.5595942140
-0.6410061121 -2.0919477940 -0.5595942140
-0.6468815804 -2.0850727558 -0.5583338141
-0.6541560888 -2.0828020573 -0.5583338141
-0.6599673629 -2.0758914948 -0.5570735335
-0.6672094464 -2.0735752583 -0.5570735335
-0.6729565263 -2.0666289330 -0.5558131337
-0.6801661849 -2.0642673969 -0.5558131337
-0.6858485937 -2.0572869778 -0.5545528531
-0.6930255890 -2.0548803806 -0.5545528531
-0.6986427903 -2.0478653908 -0.5532924533
-0.7057870626 -2.0454142094 -0.5532924533
-0.7113392949 -2.0383660793 -0.5520321131
-0.7184503078 -2.0358705521 -0.5520321131
-0.7255523801 -2.0333504677 -0.5520321131
-0.7326455712 -2.0308053493 -0.5520321131
-0.7380831242 -2.0236856937 -0.5507717729
-0.7451424599 -2.0210971832 -0.5507717729
-0.7505144477 -2.0139458179 -0.5495114326
-0.7575397491 -2.0113136768 -0.5495114326
-0.7628454566 -2.0041310787 -0.5482510924
-0.7681105733 -1.9969356060 -0.5469906926
-0.7750763893 -1.9942421913 -0.5469906926
-0.7802754641 -1.9870165586 -0.5457303524
-0.7872065902 -1.9842808247 -0.5457303524
-0.7941281199 -1.9815208912 -0.5457303524
-0.8010402322 -1.9787367582 -0.5457303524
-0.8086321354 -1.9756463766 -0.5457303524
-0.8136857748 -1.9683356285 -0.5444700122
-0.8205515146 -1.9654834270 -0.5444700122
-0.8255387545 -1.9581440687 -0.5432096720
-0.8323687911 -1.9552505016 -0.5432096720
-0.8391889930 -1.9523330927 -0.5432096720
-0.8440832496 -1.9449485540 -0.5419493318
-0.8508671522 -1.9419903755 -0.5419493318
-0.8556945324 -1.9345786572 -0.5406889915
-0.8624421954 -1.9315799475 -0.5406889915
-0.8691795468 -1.9285576344 -0.5406889915
-0.8759061098 -1.9255119562 -0.5406889915
-0.8826219440 -1.9224427938 -0.5406889915
-0.8893272877 -1.9193500280 -0.5406889915
-0.8939827681 -1.9118459225 -0.5394285917
-0.9006510377 -1.9087136984 -0.5394285917
-0.9052388668 -1.9011845589 -0.5381683111
-0.9118696451 -1.8980132341 -0.5381683111
-0.9163896441 -1.8904592991 -0.5369079113
-0.9229829311 -1.8872489929 -0.5369079113
-0.9295651913 -1.8840155602 -0.5369079113
-0.9339905977 -1.8764225245 -0.5356476307
-0.9405347109 -1.8731509447 -0.5356476307
-0.9470676780 -1.8698563576 -0.5356476307
-0.9513981342 -1.8622248173 -0.5343872309
-0.9578928351 -1.8588924408 -0.5343872309
-0.9643756747 -1.8555374146 -0.5343872309
-0.9708467126 -1.8521598577 -0.5343872309
-0.9773061872 -1.8487596512 -0.5343872309
-0.9837535024 -1.8453370333 -0.5343872309
-0.9901891351 -1.8418917656 -0.5343872309
-0.9966123700 -1.8384242058 -0.5343872309
-1.0030235052 -1.8349342346 -0.5343872309
-1.0070976019 -1.8271784782 -0.5331268907
-1.0134694576 -1.8236520290 -0.5331268907
-1.0198291540 -1.8201031685 -0.5331268907
-1.0261762142 -1.8165322542 -0.5331268907
-1.0325107574 -1.8129391670 -0.5331268907
-1.0364340544 -1.8051217794 -0.5318665504
-1.0427287817 -1.8014930487 -0.5318665504
-1.0490108728 -1.7978421450 -0.5318665504
-1.0552800894 -1.7941695452 -0.5318665504
-1.0615364313 -1.7904750109 -0.5318665504
-1.0677800179 -1.7867585421 -0.5318665504
-1.0740103722 -1.7830204964 -0.5318665504
-1.0827286243 -1.7834029198 -0.5331268907
-1.0914622545 -1.7837460041 -0.5343872309
-1.0926227570 -1.7716759443 -0.5318665504
-1.7957075834 -2.8728668690 -0.8721603751
-1.8057250977 -2.8665809631 -0.8721603751
-1.8183070421 -2.8643493652 -0.8734206557
-1.8256931305 -2.8539052010 -0.8721603751
-1.8382595778 -2.8515853882 -0.8734206557
-2.2335355282 -3.4141256809 -1.0523899794
-2.2560706139 -3.4224810600 -1.0574313402
-2.2680034637 -3.4145851135 -1.0574313402
-2.2825951576 -3.4106719494 -1.0586917400
-2.2971866131 -3.4066987038 -1.0599520206
-2.2954940796 -3.3786308765 -1.0536502600
-2.3072736263 -3.3705976009 -1.0536502600
-2.3299927711 -3.3784697056 -1.0586917400
-2.0200812817 -2.8631324768 -0.9024086595
-2.0132787228 -2.8323760033 -0.8948465586
-2.0484535694 -2.8607747555 -0.9061897397
-2.0584270954 -2.8536067009 -0.9061897397
-2.0598597527 -2.8346488476 -0.9024086595
-2.0650217533 -2.8189034462 -0.8998879790
-2.0691144466 -2.8038830757 -0.8973672390
-2.0731277466 -2.7888684273 -0.8948465586
-2.0799555779 -2.7777373791 -0.8935862184
-2.0838234425 -2.7627253532 -0.8910654783
-2.0905330181 -2.7515778542 -0.8898051977
-2.0942554474 -2.7365701199 -0.8872845173
-2.1008470058 -2.7254061699 -0.8860241175
-2.1044244766 -2.7104036808 -0.8835034370
-2.1108980179 -2.6992254257 -0.8822430968
-2.1143307686 -2.6842296124 -0.8797224164
-2.1197531223 -2.6737775803 -0.8784620166
-2.1239740849 -2.6580498219 -0.8759413362
-2.1241562366 -2.6392972469 -0.8721603751
-2.1242327690 -2.6205761433 -0.8683792949
-2.1333673000 -2.6131453514 -0.8683792949
-2.1578121185 -2.6243932247 -0.8746810555
-2.1792807579 -2.6317708492 -0.8797224164
-2.2008278370 -2.6390297413 -0.8847637773
-2.2224514484 -2.6461706161 -0.8898051977
-2.2441513538 -2.6531925201 -0.8948465586
-2.2690594196 -2.6637828350 -0.9011482596
-2.2909235954 -2.6705546379 -0.9061897397
-2.3128633499 -2.6772053242 -0.9112311006
-2.3380467892 -2.6873908043 -0.9175328016
-2.3601462841 -2.6937890053 -0.9225741625
-2.3823187351 -2.7000653744 -0.9276155829
-2.4045636654 -2.7062196732 -0.9326569438
-2.4268813133 -2.7122509480 -0.9376984239
-2.4525032043 -2.7217586040 -0.9440001249
-2.4814670086 -2.7347083092 -0.9515621662
-2.5138101578 -2.7510650158 -0.9603846073
-2.8481988907 -3.0745961666 -1.0813779831
-2.8589136600 -3.0646355152 -1.0813779831
-1.6976045370 -1.7788696289 -0.6301736236
-1.7368421555 -1.7948471308 -0.6402564049
-1.7430967093 -1.7887736559 -0.6402564049
-1.7527115345 -1.7861387730 -0.6415167451
-1.7555419207 -1.7765611410 -0.6402564049
-1.7617329359 -1.7704219818 -0.6402564049
-1.7644841671 -1.7608367205 -0.6389960647
-1.7706197500 -1.7546668053 -0.6389960647
-1.7739014626 -1.7444554567 -0.6377357244
-1.7799798250 -1.7382528782 -0.6377357244
-1.7860366106 -1.7320290804 -0.6377357244
-1.7879922390 -1.7230445147 -0.6364753246
-1.7905070782 -1.7134402990 -0.6352150440
-1.7929766178 -1.7038394213 -0.6339546442
-1.7918889523 -1.6909140348 -0.6314339638
-1.7948436737 -1.6807066202 -0.6301736236
-1.8042360544 -1.6777331829 -0.6314339638
-1.8100813627 -1.6714249849 -0.6314339638
-0.8065729141 -0.7253729105 -0.2722350061
-0.8055067062 -0.7193127275 -0.2709746659
-0.8152221441 -0.7229517698 -0.2734953463
-0.8177407384 -0.7201017737 -0.2734953463
-0.8202493191 -0.7172429562 -0.2734953463
-0.8263863921 -0.7175651193 -0.2747557163
-0.8288862705 -0.7146759629 -0.2747557163
-0.8350363970 -0.7149424553 -0.2760160565
-0.8375269175 -0.7120233178 -0.2760160565
-0.8436897397 -0.7122340202 -0.2772764266
-0.8461707234 -0.7092847228 -0.2772764266
-0.8523459435 -0.7094392776 -0.2785367668
-0.8585323095 -0.7095595598 -0.2797971070
-0.8647298813 -0.7096452117 -0.2810574472
-0.8709384799 -0.7096962929 -0.2823177874
-0.8734104633 -0.7066518664 -0.2823177874
-0.8796300888 -0.7066462040 -0.2835781574
-0.8858600855 -0.7066059709 -0.2848384976
-0.8883211613 -0.7035094500 -0.2848384976
-0.8945612311 -0.7034124732 -0.2860988379
-0.8970111012 -0.7002856731 -0.2860988379
-0.9032610059 -0.7001315951 -0.2873591781
-0.9056993723 -0.6969744563 -0.2873591781
-0.9081267118 -0.6938087344 -0.2873591781
-0.9105429649 -0.6906346083 -0.2873591781
-0.9168001413 -0.6903801560 -0.2886195183
-0.9192045927 -0.6871755123 -0.2886195183
-0.9254699945 -0.6868638396 -0.2898798883
-0.9278619289 -0.6836292148 -0.2898798883
-0.9341350794 -0.6832602620 -0.2911402285
-0.9365143776 -0.6799954176 -0.2911402285
-0.9427949190 -0.6795687675 -0.2924005687
-0.9453971386 -0.6759439111 -0.2924005687
-0.9477509856 -0.6726395488 -0.2924005687
-0.9500931501 -0.6693272591 -0.2924005687
-0.9524236917 -0.6660067439 -0.2924005687
-0.9587051868 -0.6654548645 -0.2936609089
-0.9610221982 -0.6621043086 -0.2936609089
-0.9673094749 -0.6614944339 -0.2949212492
-0.9736039639 -0.6608489156 -0.2961816192
-0.9799057245 -0.6601675153 -0.2974419594
-0.9862145185 -0.6594501138 -0.2987022996
-0.9885103703 -0.6560035944 -0.2987022996
-0.9907943606 -0.6525488496 -0.2987022996
-0.9971046448 -0.6517513394 -0.2999626398
-0.9993735552 -0.6482668519 -0.2999626398
-1.0056873560 -0.6474111676 -0.3012229800
-1.0079411268 -0.6438968182 -0.3012229800
-1.0101827383 -0.6403743029 -0.3012229800
-1.0124118328 -0.6368442178 -0.3012229800
-1.0146286488 -0.6333064437 -0.3012229800
-1.0209355354 -0.6323263645 -0.3024833500
-1.0231364965 -0.6287588477 -0.3024833500
-1.0294454098 -0.6277201772 -0.3037436903
-1.0316301584 -0.6241229773 -0.3037436903
-1.0379403830 -0.6230260730 -0.3050040305
-1.0401087999 -0.6193992496 -0.3050040305
-1.0422644615 -0.6157648563 -0.3050040305
-1.0485715866 -0.6145871878 -0.3062643707
-1.0507104397 -0.6109233499 -0.3062643707
-1.0530484915 -0.6068843603 -0.3062643707
-1.0551604033 -0.6032049060 -0.3062643707
-1.0614583492 -0.6019227505 -0.3075247407
-1.0635529757 -0.5982139707 -0.3075247407
-1.0656348467 -0.5944976211 -0.3075247407
-1.0677034855 -0.5907742977 -0.3075247407
-1.0697591305 -0.5870437622 -0.3075247407
-1.0760418177 -0.5856370926 -0.3087851107
-1.0780794621 -0.5818774700 -0.3087851107
-1.0801041126 -0.5781105161 -0.3087851107
-1.0863797665 -0.5766232610 -0.3100454509
-1.0883858204 -0.5728275776 -0.3100454509
-1.0903787613 -0.5690249801 -0.3100454509
-1.0966463089 -0.5674571395 -0.3113057911
-1.0986205339 -0.5636254549 -0.3113057911
-1.1005811691 -0.5597871542 -0.3113057911
-1.1025284529 -0.5559420586 -0.3113057911
-1.1087812185 -0.5542717576 -0.3125661314
-1.1107091904 -0.5503980517 -0.3125661314
-1.1126236916 -0.5465174317 -0.3125661314
-1.1145246029 -0.5426303744 -0.3125661314
-1.1164119244 -0.5387367010 -0.3125661314
-1.1182856560 -0.5348364711 -0.3125661314
-1.1201457977 -0.5309296846 -0.3125661314
-1.1219923496 -0.5270162225 -0.3125661314
-1.1283863783 -0.5247628093 -0.3138264716
-1.1302112341 -0.5208208561 -0.3138264716
-1.1320223808 -0.5168725848 -0.3138264716
-1.1338196993 -0.5129179358 -0.3138264716
-1.1311960220 -0.5069598556 -0.3125661314
-1.1329588890 -0.5030078888 -0.3125661314
-1.1347078085 -0.4990501404 -0.3125661314
-1.1320151091 -0.4931352735 -0.3113057911
-1.1425986290 -0.4930519760 -0.3138264716
-1.1443127394 -0.4890606105 -0.3138264716
-1.1371171474 -0.4812538922 -0.3113057911
-4.1874017715 -1.7528733015 -1.1721230745
-4.1979622841 -1.7401038408 -1.1733832359
-4.2040104866 -1.7254399061 -1.1733832359
-4.2100081444 -1.7107536793 -1.1733832359
-4.2204413414 -1.6978589296 -1.1746436357
-4.2173557281 -1.6795260906 -1.1721230745
-4.2141938210 -1.6612354517 -1.1696022749
-4.2019443512 -1.6394597292 -1.1645609140
-4.1941070557 -1.6195368767 -1.1607798338
-4.2358770370 -1.6187462807 -1.1708626747
-4.2595968246 -1.6108171940 -1.1759040356
-4.2923717499 -1.6061435938 -1.1834660769
-4.2979521751 -1.5911508799 -1.1834660769
-4.3040299416 -1.5746361017 -1.1834660769
-4.3049526215 -1.5579513311 -1.1822057962
-4.3103647232 -1.5429137945 -1.1822057962
-4.3157243729 -1.5278587341 -1.1822057962
-4.3210310936 -1.5127849579 -1.1822057962
-4.3308553696 -1.4992806911 -1.1834660769
-4.3360624313 -1.4841542244 -1.1834660769
-4.3412170410 -1.4690085649 -1.1834660769
-4.3509054184 -1.4553864002 -1.1847264767
-4.3559589386 -1.4401901960 -1.1847264767
-4.3609595299 -1.4249764681 -1.1847264767
-4.3705101013 -1.4112374783 -1.1859867573
-4.3754096031 -1.3959720135 -1.1859867573
-4.3802556992 -1.3806908131 -1.1859867573
-4.3896670341 -1.3668363094 -1.1872471571
-4.3944110870 -1.3515055180 -1.1872471571
-4.4037299156 -1.3375694752 -1.1885074377
-4.4083724022 -1.3221884966 -1.1885074377
-4.4175987244 -1.3081716299 -1.1897678375
-4.4267807007 -1.2941064835 -1.1910282373
-4.4359183311 -1.2799931765 -1.1922885180
-4.4403595924 -1.2645014524 -1.1922885180
-4.4494028091 -1.2503070831 -1.1935487986
-4.4537401199 -1.2347683907 -1.1935487986
-4.4580230713 -1.2192146778 -1.1935487986
-4.4669218063 -1.2049114704 -1.1948091984
-4.4711003304 -1.1893118620 -1.1948091984
-4.4799041748 -1.1749293804 -1.1960695982
-4.4890661240 -1.1589338779 -1.1973299980
-4.4977722168 -1.1444556713 -1.1985902786
-4.5064311028 -1.1299307346 -1.1998505592
-4.5150437355 -1.1153594255 -1.2011109591
-4.5236096382 -1.1007416248 -1.2023713589
-4.5368328094 -1.0872092247 -1.2048919201
-4.5453081131 -1.0724827051 -1.2061523199
-4.5537362099 -1.0577102900 -1.2074127197
-4.5574002266 -1.0418086052 -1.2074127197
-4.5657286644 -1.0269613266 -1.2086731195
-4.5740084648 -1.0120671988 -1.2099334002
-4.5869669914 -0.9981631637 -1.2124540806
-4.5951538086 -0.9831633568 -1.2137144804
-4.6032910347 -0.9681184888 -1.2149747610
-4.6113801003 -0.9530289173 -1.2162351608
-4.6194195747 -0.9378933907 -1.2174954414
-4.6274094582 -0.9227145314 -1.2187558413
-4.6353492737 -0.9074912667 -1.2200161219
-4.6479902267 -0.8931421638 -1.2225369215
-4.6513853073 -0.8752885461 -1.2225369215
-4.6211118698 -0.8528631926 -1.2137144804
-4.6002593040 -0.8323935270 -1.2074127197
-4.5888471603 -0.8137790561 -1.2036317587
-4.5773611069 -0.7952555418 -1.1998505592
-4.6087236404 -0.7841744423 -1.2074127197
-4.6543798447 -0.7752848268 -1.2187558413
-4.7048044205 -0.7668694258 -1.2313592434
-4.7074527740 -0.7504408956 -1.2313592434
-4.7148237228 -0.7347548008 -1.2326196432
-4.7221422195 -0.7190263271 -1.2338800430
-4.7246236801 -0.7025388479 -1.2338800430
-4.7318348885 -0.6867429614 -1.2351404428
-4.7342033386 -0.6702205539 -1.2351404428
-4.7413058281 -0.6543579698 -1.2364006042
-4.7435612679 -0.6378039718 -1.2364006042
-4.7505555153 -0.6218754649 -1.2376610041
-4.7574963570 -0.6059058905 -1.2389214039
-4.7595825195 -0.5892944336 -1.2389214039
-4.7664141655 -0.5732600093 -1.2401818037
-4.7683858871 -0.5566188693 -1.2401818037
-4.7751069069 -0.5405203700 -1.2414420843
-4.7817735672 -0.5243816972 -1.2427023649
-4.7835750580 -0.5076860189 -1.2427023649
-4.7901310921 -0.4914844334 -1.2439627647
-4.7966318130 -0.4752432704 -1.2452231646
-4.7984213829 -0.4568219483 -1.2452231646
-4.8048043251 -0.4405167401 -1.2464834452
-4.8111324310 -0.4241725206 -1.2477438450
-4.8125834465 -0.4073749483 -1.2477438450
-4.8187985420 -0.3909701407 -1.2490041256
-4.8249578476 -0.3745268881 -1.2502645254
-4.8262357712 -0.3576826155 -1.2502645254
-4.8322806358 -0.3411799073 -1.2515248060
-4.8382697105 -0.3246380985 -1.2527852058
-4.8393735886 -0.3077476919 -1.2527852058
-4.8452477455 -0.2911488712 -1.2540456057
-4.8462343216 -0.2742342949 -1.2540456057
-4.8471622467 -0.2573163509 -1.2540456057
-4.8480310440 -0.2403940260 -1.2540456057
-4.8536739349 -0.2236979604 -1.2553058863
-4.8544249535 -0.2067543566 -1.2553058863
-4.8599514961 -0.1900024265 -1.2565661669
-4.8605852127 -0.1730371267 -1.2565661669
-4.8659954071 -0.1562288702 -1.2578265667
-4.8713479042 -0.1393862218 -1.2590869665
-4.8718047142 -0.1223814487 -1.2590869665
-4.8770394325 -0.1054849625 -1.2603472471
-4.8774085045 -0.0867576376 -1.2603472471
-4.8776817322 -0.0697320402 -1.2603472471
-4.8778953552 -0.0527042970 -1.2603472471
-4.8780498505 -0.0356772058 -1.2603472471
-4.8829832077 -0.0186733212 -1.2616076469
-4.8830184937 -0.0016286660 -1.2616076469
-4.8878326416 0.0154261319 -1.2628679276
-4.8877491951 0.0324887894 -1.2628679276
-4.8924441338 0.0495936722 -1.2641283274
-4.8922414780 0.0666709244 -1.2641283274
-4.8968167305 0.0838250741 -1.2653887272
-4.8964943886 0.1009173840 -1.2653887272
-4.8961124420 0.1180097535 -1.2653887272
-4.9005074501 0.1352277398 -1.2666490078
-4.9000058174 0.1523326188 -1.2666490078
-4.9042797089 0.1695977598 -1.2679092884
-4.9084930420 0.1868945807 -1.2691696882
-4.9078106880 0.2040283233 -1.2691696882
-4.9119024277 0.2213710248 -1.2704300880
-4.9110999107 0.2385151535 -1.2704300880
-4.9102373123 0.2556563914 -1.2704300880
-4.9093151093 0.2727944851 -1.2704300880
-4.9082317352 0.2916429639 -1.2704300880
-4.9120130539 0.3090726137 -1.2716904879
-4.9109044075 0.3262178898 -1.2716904879
-4.9145622253 0.3436903358 -1.2729506493
-4.9181585312 0.3611923456 -1.2742110491
-4.9168682098 0.3783574402 -1.2742110491
-4.9203410149 0.3959009647 -1.2754714489
-4.9189286232 0.4130747616 -1.2754714489
-4.9222774506 0.4306589365 -1.2767318487
-4.9207444191 0.4478380084 -1.2767318487
-4.9239683151 0.4654619098 -1.2779921293
-4.9223136902 0.4826466441 -1.2779921293
-4.9205989838 0.4998268187 -1.2779921293
-4.9236369133 0.5175003409 -1.2792524099
-4.9218006134 0.5346836448 -1.2792524099
-4.9247131348 0.5523947477 -1.2805128098
-4.9227547646 0.5695815682 -1.2805128098
-4.9207367897 0.5867627859 -1.2805128098
-4.9234619141 0.6045201421 -1.2817732096
-4.9213213921 0.6217023134 -1.2817732096
-4.9236965179 0.6412140727 -1.2830334902
-4.9214282036 0.6583968401 -1.2830334902
-4.9238944054 0.6762248874 -1.2842938900
-4.9215035439 0.6934093833 -1.2842938900
-4.9238429070 0.7112709880 -1.2855541706
-4.9261174202 0.7291573286 -1.2868145704
-4.9235424995 0.7463479638 -1.2868145704
-4.9256887436 0.7642663717 -1.2880748510
-4.9229907990 0.7814565897 -1.2880748510
-4.9250102043 0.7994062901 -1.2893352509
-4.9221897125 0.8165926933 -1.2893352509
-4.9240808487 0.8345726728 -1.2905956507
-4.9211378098 0.8517555594 -1.2905956507
-4.9229001999 0.8697662950 -1.2918559313
-4.9198341370 0.8869448900 -1.2918559313
-4.9214677811 0.9049828053 -1.2931163311
-4.9182791710 0.9221561551 -1.2931163311
-4.9197831154 0.9402215481 -1.2943766117
-4.9117212296 0.9564702511 -1.2931163311
-4.9225935936 0.9764187336 -1.2968974113
-4.9191551208 0.9935956001 -1.2968974113
-4.7020015717 0.9687693715 -1.2401818037
-4.8797168732 1.0407402515 -1.2893352509
-0.5179358125 0.1266198158 -0.1285554171
-0.5071828961 0.1297316104 -0.1260347366
-0.5038619041 0.1420844197 -0.1260347366
-0.4377335906 0.3044328690 -0.1285554171
-0.4486366510 0.3141724765 -0.1323364675
-0.5072358251 0.3570121825 -0.1512416750
-0.8017758131 0.5690014362 -0.2457677126
-0.8825328350 0.6307626367 -0.2722350061
-0.8803257346 0.6338393688 -0.2722350061
-0.8859685063 0.6425526738 -0.2747557163
-0.8915609121 0.6513131857 -0.2772764266
-0.8892819881 0.6544213295 -0.2772764266
-0.8869922757 0.6575214863 -0.2772764266
-0.8885822296 0.6634902954 -0.2785367668
-0.8862608075 0.6665879488 -0.2785367668
-0.8839284778 0.6696776748 -0.2785367668
-0.8815854788 0.6727590561 -0.2785367668
-0.8792317510 0.6758322120 -0.2785367668
-0.8768673539 0.6788971424 -0.2785367668
-0.8744922876 0.6819537878 -0.2785367668
-0.8721063137 0.6850023866 -0.2785367668
-0.8735185862 0.6910265684 -0.2797971070
-0.8711012006 0.6940714717 -0.2797971070
-0.8686731458 0.6971079111 -0.2797971070
-0.8624573350 0.6971119046 -0.2785367668
-0.8600185513 0.7001184225 -0.2785367668
-0.8575695157 0.7031161189 -0.2785367668
-0.8551099896 0.7061052918 -0.2785367668
-0.8526400328 0.7090858221 -0.2785367668
-0.8501597047 0.7120577097 -0.2785367668
-0.8474193215 0.7153168321 -0.2785367668
-0.8449171185 0.7182707191 -0.2785367668
-0.8424047232 0.7212156057 -0.2785367668
-0.8435614109 0.7272940874 -0.2797971070
-0.8410175443 0.7302342057 -0.2797971070
-0.8384634852 0.7331653833 -0.2797971070
-0.8358989954 0.7360879183 -0.2797971070
-0.8333245516 0.7390012145 -0.2797971070
-0.8307398558 0.7419055104 -0.2797971070
-0.8281451464 0.7448007464 -0.2797971070
-0.8255403042 0.7476869226 -0.2797971070
-0.8229252100 0.7505642176 -0.2797971070
-0.8238790035 0.7566885352 -0.2810574472
-0.8212326765 0.7595598102 -0.2810574472
-0.8221322298 0.7657030821 -0.2823177874
-0.8194544911 0.7685680985 -0.2823177874
-0.8167665601 0.7714240551 -0.2823177874
-0.8140688539 0.7742703557 -0.2823177874
-0.8113611937 0.7771072388 -0.2823177874
-0.8086436987 0.7799346447 -0.2823177874
-0.8059163094 0.7827525139 -0.2823177874
-0.8031789064 0.7855610847 -0.2823177874
-0.8004319668 0.7883598804 -0.2823177874
-0.7942241430 0.7877576947 -0.2810574472
-0.7914695740 0.7905251980 -0.2810574472
-0.7887053490 0.7932831049 -0.2810574472
-0.7859312892 0.7960315347 -0.2810574472
-0.7831478715 0.7987700105 -0.2810574472
-0.7837463021 0.8049499393 -0.2823177874
-0.7809317708 0.8076807857 -0.2823177874
-0.7781077027 0.8104017377 -0.2823177874
-0.7749902606 0.8133835196 -0.2823177874
-0.7754877806 0.8195832372 -0.2835781574
-0.7726222277 0.8222851157 -0.2835781574
-0.7730643749 0.8284995556 -0.2848384976
-0.7701676488 0.8311929703 -0.2848384976
-0.7672616243 0.8338762522 -0.2848384976
-0.7643460035 0.8365495801 -0.2848384976
-0.7614213228 0.8392124772 -0.2848384976
-0.7584872842 0.8418651819 -0.2848384976
-0.7555440664 0.8445076346 -0.2848384976
-0.7525916100 0.8471398354 -0.2848384976
-0.7496297956 0.8497618437 -0.2848384976
-0.7498639226 0.8559982777 -0.2860988379
-0.7468714118 0.8586105704 -0.2860988379
-0.7470492125 0.8648596406 -0.2873591781
-0.7440257668 0.8674619794 -0.2873591781
-0.7441470027 0.8737233877 -0.2886195183
-0.7410926819 0.8763155341 -0.2886195183
-0.7380293012 0.8788970709 -0.2886195183
-0.7349569201 0.8814678788 -0.2886195183
-0.7318755388 0.8840279579 -0.2886195183
-0.7287850976 0.8865774274 -0.2886195183
-0.7287623286 0.8928505778 -0.2898798883
-0.7256413102 0.8953889012 -0.2898798883
-0.7225114703 0.8979163766 -0.2898798883
-0.7193728089 0.9004329443 -0.2898798883
-0.7192490697 0.9067158699 -0.2911402285
-0.7160797119 0.9092209339 -0.2911402285
-0.7129015923 0.9117149711 -0.2911402285
-0.7097148299 0.9141978621 -0.2911402285
-0.7065194249 0.9166696072 -0.2911402285
-0.7033151388 0.9191303849 -0.2911402285
-0.7030467391 0.9254195094 -0.2924005687
-0.6994881630 0.9281122088 -0.2924005687
-0.6962442398 0.9305481315 -0.2924005687
-0.6929918528 0.9329727888 -0.2924005687
-0.6926199198 0.9392675161 -0.2936609089
-0.6893370748 0.9416794777 -0.2936609089
-0.6860455871 0.9440801144 -0.2936609089
-0.6827460527 0.9464690685 -0.2936609089
-0.6794381142 0.9488464594 -0.2936609089
-0.6761219501 0.9512123466 -0.2936609089
-0.6531484723 0.9259789586 -0.2848384976
-0.5164870024 0.7674967647 -0.2306435406
-0.5192245841 0.7773119211 -0.2331642359
-0.5192040205 0.7831376195 -0.2344246060
-0.5057399273 0.7688358426 -0.2293832004
-0.5003854036 0.7665598392 -0.2281228602
-0.4923990965 0.7602100372 -0.2256021649
-0.4871030152 0.7578690052 -0.2243418097
-0.4818292856 0.7555003166 -0.2230814695
-0.4765780866 0.7531040907 -0.2218211293
-0.4869308770 0.7751759887 -0.2281228602
-0.4558129311 0.7318630219 -0.2142590284
-0.5465603471 0.9032478333 -0.2646729350
-0.6212396026 1.0333690643 -0.3037436903
-0.6251179576 1.0479658842 -0.3075247407
-0.6164922714 1.0418343544 -0.3050040305
-0.6079171300 1.0356557369 -0.3024833500
-0.6067512035 1.0419421196 -0.3037436903
-0.6031101942 1.0440537930 -0.3037436903
-0.6018858552 1.0503404140 -0.3050040305
-0.5982158184 1.0524350405 -0.3050040305
-0.5965632200 1.0589296818 -0.3062643707
-0.5928633213 1.0610055923 -0.3062643707
-0.5915197134 1.0672906637 -0.3075247407
-0.5877903104 1.0693490505 -0.3075247407
-0.5840541124 1.0713943243 -0.3075247407
-0.5803107023 1.0734264851 -0.3075247407
-0.5765602589 1.0754455328 -0.3075247407
-0.5750922561 1.0817141533 -0.3087851107
-0.5713126063 1.0837152004 -0.3087851107
-0.5697859526 1.0899813175 -0.3100454509
-0.5659778118 1.0919635296 -0.3100454509
-0.5643924475 1.0982266665 -0.3113057911
-0.5605555177 1.1001900434 -0.3113057911
-0.5589111447 1.1064498425 -0.3125661314
-0.5550456047 1.1083940268 -0.3125661314
-0.5511732101 1.1103247404 -0.3125661314
-0.5537574291 1.1252391338 -0.3163471818
-0.5305727720 1.0881057978 -0.3050040305
-0.3781494498 0.8070287704 -0.2218211293
-0.3794565499 0.8170970082 -0.2243418097
-0.3622664213 0.7877301574 -0.2155193835
-0.3595145643 0.7889899015 -0.2155193835
-0.3547410667 0.7858420014 -0.2142590284
-0.3499939442 0.7826704979 -0.2129986882
-0.3452733159 0.7794755101 -0.2117383480
-0.3405790627 0.7762571573 -0.2104779929
-0.3359117508 0.7730155587 -0.2092176527
-0.3312712014 0.7697508931 -0.2079572976
-0.3266575634 0.7664632797 -0.2066969573
-0.3220709562 0.7631528974 -0.2054366171
-0.3194049299 0.7642725706 -0.2054366171
-0.3148570955 0.7609236836 -0.2041762620
-0.3103365600 0.7575523853 -0.2029159218
-0.3039964437 0.7496866584 -0.2003952116
-0.2995463908 0.7462646365 -0.1991348714
-0.2933081090 0.7383358479 -0.1966141760
-0.2889290750 0.7348638773 -0.1953538209
-0.2827935517 0.7268729210 -0.1928331405
-0.2782334089 0.7234490514 -0.1915727854
-0.2722038329 0.7153949142 -0.1890520900
-0.2679694593 0.7118241787 -0.1877917498
-0.2637633383 0.7082325816 -0.1865314096
-0.2578814328 0.7000918388 -0.1840106994
-0.2537479401 0.6964532733 -0.1827503443
-0.2496430427 0.6927943826 -0.1814900041
-0.2455667853 0.6891154051 -0.1802296638
-0.2415192723 0.6854164600 -0.1789693087
-0.2375004292 0.6816977859 -0.1777089685
-0.2335106730 0.6779593825 -0.1764486134
-0.2295499444 0.6742014885 -0.1751882732
-0.2256183028 0.6704242826 -0.1739279330
-0.2217158377 0.6666278839 -0.1726675779
-0.2178425044 0.6628125310 -0.1714072376
-0.2155275494 0.6635689139 -0.1714072376
-0.2116971463 0.6597211957 -0.1701468825
-0.2078962177 0.6558548808 -0.1688865274
-0.2041248828 0.6519702077 -0.1676261872
-0.2018477172 0.6526787877 -0.1676261872
-0.1981197000 0.6487627625 -0.1663658321
-0.1944215298 0.6448286772 -0.1651054919
-0.1907532364 0.6408767700 -0.1638451368
-0.1885150075 0.6415387392 -0.1638451368
-0.1848904341 0.6375564933 -0.1625847965
-0.1826638430 0.6381980181 -0.1625847965
-0.1790835112 0.6341857910 -0.1613244563
-0.1768687218 0.6348069906 -0.1613244563
-0.1733327210 0.6307652593 -0.1600641012
-0.1698269546 0.6267066598 -0.1588037610
-0.1676383317 0.6272956133 -0.1588037610
-0.1641774327 0.6232081056 -0.1575434059
-0.1607471257 0.6191041470 -0.1562830657
-0.1585850865 0.6196615100 -0.1562830657
-0.1551997066 0.6155294776 -0.1550227255
-0.1530501842 0.6160674691 -0.1550227255
-0.1497102529 0.6119076610 -0.1537623703
-0.1464011967 0.6077320576 -0.1525020152
-0.1431231648 0.6035408974 -0.1512416750
-0.1410154253 0.6040368080 -0.1512416750
-0.1377832890 0.5998189449 -0.1499813199
-0.1356885880 0.6002962589 -0.1499813199
-0.1325021237 0.5960521102 -0.1487209797
-0.1304208785 0.5965109468 -0.1487209797
-0.1272806227 0.5922409296 -0.1474606246
-0.1252127141 0.5926815867 -0.1474606246
-0.1221188456 0.5883861780 -0.1462002844
-0.1200641245 0.5888088942 -0.1462002844
-0.1170171127 0.5844884515 -0.1449399441
-0.1149760559 0.5848933458 -0.1449399441
-0.1119758338 0.5805483460 -0.1436795890
-0.1099485531 0.5809357166 -0.1436795890
-0.1069950238 0.5765666366 -0.1424192488
-0.1049819440 0.5769366026 -0.1424192488
-0.1020755991 0.5725439191 -0.1411588937
-0.1000765860 0.5728967190 -0.1411588937
-0.0980760977 0.5732425451 -0.1411588937
-0.0952325165 0.5688166618 -0.1398985535
-0.0932465568 0.5691456199 -0.1398985535
-0.0904506221 0.5646971464 -0.1386382133
-0.0884790644 0.5650094151 -0.1386382133
-0.0857309178 0.5605388284 -0.1373778582
-0.0837736279 0.5608347058 -0.1373778582
-0.0808793157 0.5563705564 -0.1361175030
-0.0789369121 0.5566495061 -0.1361175030
-0.0771878064 0.5568947196 -0.1361175030
-0.0745515227 0.5523719192 -0.1348571479
-0.0726228133 0.5526288152 -0.1348571479
-0.0706934929 0.5528789163 -0.1348571479
-0.0681214556 0.5483265519 -0.1335968077
-0.0662071779 0.5485609770 -0.1335968077
-0.0642918423 0.5487887263 -0.1335968077
-0.0623757057 0.5490098000 -0.1335968077
-0.0604590774 0.5492241979 -0.1335968077
-0.0579836592 0.5446256399 -0.1323364675
-0.0560823604 0.5448246598 -0.1323364675
-0.0541801304 0.5450171232 -0.1323364675
-0.0517697744 0.5403910875 -0.1310761124
-0.0498832949 0.5405685306 -0.1310761124
-0.0475221202 0.5359240770 -0.1298157722
-0.0456512570 0.5360866785 -0.1298157722
-0.0437795967 0.5362427831 -0.1298157722
-0.0419073775 0.5363923311 -0.1298157722
-0.0398474634 0.5365492702 -0.1298157722
-0.0379744843 0.5366851091 -0.1298157722
-0.0357295536 0.5319901109 -0.1285554171
-0.0340581499 0.5320997238 -0.1285554171
-0.0320147760 0.5322265625 -0.1285554171
-0.0301566515 0.5323351026 -0.1285554171
-0.0282984413 0.5324370861 -0.1285554171
-0.0261526462 0.5277026296 -0.1272950768
-0.0243106093 0.5277906656 -0.1272950768
-0.0222148076 0.5230404139 -0.1260347366
-0.0203888081 0.5231148005 -0.1260347366
-0.0187823307 0.5280163288 -0.1272950768
-0.0169389825 0.5280786753 -0.1272950768
-0.0130831087 0.5233484507 -0.1260347366
0.1646458656 0.7127937078 -0.1802296638
0.1671327800 0.7122146487 -0.1802296638
0.1707064211 0.7163414359 -0.1814900041
0.1732060313 0.7157411575 -0.1814900041
0.1745818257 0.7104254365 -0.1802296638
0.1770607531 0.7098116875 -0.1802296638
0.1783830225 0.7044904828 -0.1789693087
0.1805956215 0.7039265037 -0.1789693087
0.1821102649 0.6985371709 -0.1777089685
0.1833439767 0.6932107806 -0.1764486134
0.1843027771 0.6879486442 -0.1751882732
0.1867031753 0.6873010993 -0.1751882732
0.1878506243 0.6819710135 -0.1739279330
0.1889628321 0.6766415238 -0.1726675779
0.1861906052 0.6573166251 -0.1676261872
0.1858846396 0.6473412514 -0.1651054919
0.1789325625 0.6140950918 -0.1562830657
0.1677545905 0.5669509768 -0.1436795890
0.5101794600 0.2121777982 -0.1335968077
0.5510258079 0.2273549587 -0.1449399441
0.5741315484 0.2347739339 -0.1512416750
0.5793352127 0.2348238975 -0.1525020152
0.5756760240 0.2309609652 -0.1512416750
0.5585515499 0.2216562182 -0.1462002844
0.5458575487 0.2142814994 -0.1424192488
0.5241302252 0.2034137994 -0.1361175030
0.5203363895 0.1998066753 -0.1348571479
0.5255375504 0.1997498125 -0.1361175030
0.5004505515 0.1839547157 -0.1285554171
0.5010895729 0.1822068393 -0.1285554171
0.5017225742 0.1804565191 -0.1285554171
0.5042358637 0.1577979475 -0.1272950768
0.5063372850 0.1509190947 -0.1272950768
0.5069130659 0.1489737779 -0.1272950768
0.4715215564 -0.2526423037 -0.0684629083
0.4750172496 -0.2565981746 -0.0691475347
0.4872356653 -0.2652350366 -0.0712014213
0.4950352609 -0.2716182172 -0.0725706741
0.5115081072 -0.2827735841 -0.0753092021
0.5323600769 -0.2962336838 -0.0787323415
0.5530240536 -0.3100205660 -0.0821554810
0.5735980868 -0.3239551783 -0.0855786353
0.5940812826 -0.3380370438 -0.0890017748
0.6144729257 -0.3522657454 -0.0924249291
0.6304656267 -0.3641943038 -0.0951634422
0.6334884763 -0.3688542545 -0.0958480686
0.6407757401 -0.3760161996 -0.0972173214
0.6437399983 -0.3807420731 -0.0979019552
0.6466789842 -0.3854931295 -0.0985865816
0.6495925784 -0.3902693689 -0.0992712080
0.6524806619 -0.3950705528 -0.0999558344
