-6.1166925430 -3.5905687809 -0.4103812277
-5.4340028763 -3.0145437717 -0.3592650890
-5.3847751617 -2.9383406639 -0.3546181917
-5.3291187286 -2.8839480877 -0.3502616882
-5.3303523064 -2.8606159687 -0.3496808112
-5.3187561035 -2.8293590546 -0.3482286632
-5.2981686592 -2.7935762405 -0.3461956382
-5.2626709938 -2.7538158894 -0.3432913125
-5.2367897034 -2.7170696259 -0.3409678340
-5.1973938942 -2.6737012863 -0.3377730846
-5.2027091980 -2.6523716450 -0.3374826610
-5.1901087761 -2.6220507622 -0.3360304832
-5.2036952972 -2.6061494350 -0.3363209367
-5.2172336578 -2.5901851654 -0.3366113603
-5.2083210945 -2.5631570816 -0.3354496360
-5.2082595825 -2.5405926704 -0.3348687589
-5.2485671043 -2.5375771523 -0.3369017839
-5.3024272919 -2.5407695770 -0.3398061097
-5.3699059486 -2.5500280857 -0.3435817361
-5.3742561340 -2.5291454792 -0.3432913125
-5.4011545181 -2.5187931061 -0.3444530368
-5.4235129356 -2.5061936378 -0.3453243077
-5.4458494186 -2.4934689999 -0.3461956382
-5.4681620598 -2.4806187153 -0.3470669389
-5.4950070381 -2.4696836472 -0.3482286632
-5.5172796249 -2.4565665722 -0.3490999341
-5.5395278931 -2.4433240891 -0.3499712646
-5.5617499352 -2.4299559593 -0.3508425653
-5.5747809410 -2.4125058651 -0.3511329889
-5.5831685066 -2.3930304050 -0.3511329889
-5.6190662384 -2.3852050304 -0.3528755605
-5.5997385979 -2.3539950848 -0.3511329889
-5.6079216003 -2.3344342709 -0.3511329889
-5.4175229073 -2.2332262993 -0.3386443853
-4.5237655640 -1.8473149538 -0.2820100486
-4.5348153114 -1.8333786726 -0.2823004425
-4.5411872864 -1.8175382614 -0.2823004425
-4.5475039482 -1.8016757965 -0.2823004425
-4.5537652969 -1.7857912779 -0.2823004425
-4.5646266937 -1.7716848850 -0.2825908959
-4.5707831383 -1.7557407618 -0.2825908959
-4.5815520287 -1.7415438890 -0.2828813195
-4.5829291344 -1.7237886190 -0.2825908959
-4.5892162323 -1.7069792747 -0.2825908959
-4.5948519707 -1.6917513609 -0.2825908959
-5.2320327759 -1.8821413517 -0.3212184012
-5.3279542923 -1.8955719471 -0.3267366588
-5.4570026398 -1.9199209213 -0.3342878819
-5.5579895973 -1.9335771799 -0.3400965631
-5.6591372490 -1.9465496540 -0.3459051847
-5.7368054390 -1.9508264065 -0.3502616882
-5.8193044662 -1.9561707973 -0.3549085855
-5.9019103050 -1.9609627724 -0.3595555425
-5.9893631935 -1.9667547941 -0.3644928932
-6.0769271851 -1.9719581604 -0.3694302142
-6.1503362656 -1.9720152617 -0.3734962940
-6.2190589905 -1.9700802565 -0.3772719204
-6.2878422737 -1.9676891565 -0.3810475469
-6.3614540100 -1.9663118124 -0.3851135671
-6.4160318375 -1.9586284161 -0.3880179226
-6.4801926613 -1.9534633160 -0.3915030956
-6.5252542496 -1.9421931505 -0.3938265741
-6.5703153610 -1.9306319952 -0.3961500227
-6.6201701164 -1.9201666117 -0.3987639248
-6.6700315475 -1.9093748331 -0.4013778269
-6.7247023582 -1.8996131420 -0.4042821527
-6.7841944695 -1.8908293247 -0.4074769020
-6.8437066078 -1.8816530704 -0.4106716514
-6.9080553055 -1.8733870983 -0.4141568244
-6.9676065445 -1.8634068966 -0.4173516035
-7.0319986343 -1.8543045521 -0.4208368063
-7.0915794373 -1.8435227871 -0.4240315557
-7.1511702538 -1.8323476315 -0.4272263348
-7.2107682228 -1.8207786083 -0.4304210842
-7.2606835365 -1.8064105511 -0.4330349565
-7.3112096786 -1.7891675234 -0.4356488585
-7.3653244972 -1.7778667212 -0.4385531843
-7.4151992798 -1.7625042200 -0.4411670864
-7.4650559425 -1.7468149662 -0.4437809587
-7.5151953697 -1.7294861078 -0.4463948607
-7.5653066635 -1.7118151188 -0.4490087628
-7.6102204323 -1.6940450668 -0.4513322115
-7.6551017761 -1.6759841442 -0.4536556900
-7.6999492645 -1.6576304436 -0.4559791386
-7.7447609901 -1.6389839649 -0.4583025873
-7.7895364761 -1.6200447083 -0.4606260657
-7.8293824196 -1.5998146534 -0.4626590908
-7.8740763664 -1.5803072453 -0.4649825692
-7.9138307571 -1.5595451593 -0.4670155942
-7.9584369659 -1.5394695997 -0.4693390429
-7.9980940819 -1.5181738138 -0.4713720679
-8.0376996994 -1.4966177940 -0.4734050930
-8.0772514343 -1.4748057127 -0.4754380882
-8.1167488098 -1.4527359009 -0.4774711728
-8.1561899185 -1.4304081202 -0.4795041978
-8.1906538010 -1.4069806337 -0.4812467694
-8.2299757004 -1.3841525316 -0.4832797945
-8.2692375183 -1.3610690832 -0.4853128195
-8.3084383011 -1.3377285004 -0.4873458445
-8.3475770950 -1.3141307831 -0.4893788993
-8.3866510391 -1.2902759314 -0.4914119244
-8.4256601334 -1.2661620378 -0.4934449494
-8.4646024704 -1.2417936325 -0.4954779744
-8.4985351562 -1.2164645195 -0.4972205460
-8.5373382568 -1.1916007996 -0.4992536306
-8.5713281631 -1.1643136740 -0.5009961724
-8.6052312851 -1.1367955208 -0.5027387738
-8.6388540268 -1.1105492115 -0.5044813752
-8.6773529053 -1.0847004652 -0.5065144300
-8.7108182907 -1.0579974651 -0.5082570314
-8.7442035675 -1.0310740471 -0.5099995732
-8.7775068283 -1.0039304495 -0.5117421746
-8.8107280731 -0.9765645862 -0.5134848356
-8.8438625336 -0.9489812255 -0.5152273774
-8.8769121170 -0.9211784005 -0.5169699788
-8.9098749161 -0.8931564093 -0.5187125206
-8.9377822876 -0.8644379973 -0.5201647282
-8.9655971527 -0.8355331421 -0.5216168761
-8.9933185577 -0.8064470887 -0.5230690837
-9.0209455490 -0.7771775126 -0.5245212317
-9.0484771729 -0.7477249503 -0.5259733796
-9.0709371567 -0.7176988721 -0.5271351337
-9.0982751846 -0.6878960133 -0.5285872817
-9.1205368042 -0.6575574875 -0.5297490358
-9.1476764679 -0.6274105310 -0.5312011838
-9.1748209000 -0.5954792500 -0.5326533318
-9.2068367004 -0.5636618733 -0.5343959332
-9.2336645126 -0.5329446793 -0.5358480811
-9.2603912354 -0.5020471215 -0.5373002887
-9.2820281982 -0.4707169831 -0.5384619832
-9.3085460663 -0.4394769073 -0.5399141908
-9.3349571228 -0.4080574214 -0.5413662791
-9.3562755585 -0.3762612045 -0.5425280929
-9.3824729919 -0.3445013762 -0.5439801812
-9.4085626602 -0.3125607669 -0.5454323292
-9.4295549393 -0.2802992165 -0.5465940833
-9.4554252625 -0.2480229735 -0.5480462313
-9.4811849594 -0.2155695558 -0.5494984388
-9.5018424988 -0.1828460693 -0.5506601334
-9.5273780823 -0.1500542909 -0.5521123409
-9.5527992249 -0.1170889512 -0.5535644889
-9.5781068802 -0.0839479715 -0.5550166368
-9.6032991409 -0.0506317578 -0.5564688444
-9.6283750534 -0.0171406828 -0.5579209328
-9.6533346176 0.0165273938 -0.5593731403
-9.6781749725 0.0503669605 -0.5608252883
-9.7028961182 0.0843801275 -0.5622774363
-9.7274990082 0.1185665131 -0.5637296438
-9.7519798279 0.1529256552 -0.5651817918
-9.7763404846 0.1874597669 -0.5666339397
-9.8005771637 0.2221631855 -0.5680860877
-9.8197011948 0.2569048405 -0.5692478418
-9.8387012482 0.2917826474 -0.5704095364
-9.8525896072 0.3266281486 -0.5712808967
-9.8712778091 0.3634842038 -0.5724425912
-9.8898296356 0.4004816711 -0.5736043453
-9.9033308029 0.4356668890 -0.5744755864
-9.9216928482 0.4711907506 -0.5756373405
-9.9349431992 0.5065912008 -0.5765087008
-9.9480657578 0.5420898199 -0.5773799419
-9.9610624313 0.5776889324 -0.5782512426
-9.9789123535 0.6136917472 -0.5794129372
-9.9916524887 0.6494998336 -0.5802842975
-10.0092439651 0.6857481003 -0.5814460516
-10.0217237473 0.7217658162 -0.5823172927
-10.0340747833 0.7578817606 -0.5831885934
-10.0462951660 0.7940899134 -0.5840598941
-10.0583858490 0.8303927183 -0.5849311948
-10.0703449249 0.8667895794 -0.5858024955
-10.0821723938 0.9032799602 -0.5866737962
-10.0938673019 0.9398661852 -0.5875450969
-10.1054296494 0.9765424132 -0.5884163976
-10.1216478348 1.0155763626 -0.5895780921
-10.1327514648 1.0542260408 -0.5904494524
-10.1488599777 1.0917347670 -0.5916111469
-10.1598691940 1.1288151741 -0.5924824476
-10.1707439423 1.1659884453 -0.5933537483
-10.1368703842 1.1979527473 -0.5916111469
-7.7642955780 0.9437931776 -0.4527843595
-7.7411437035 0.9683974385 -0.4516226351
-10.2079257965 1.3149216175 -0.5965484977
-10.2280139923 1.3538360596 -0.5980007052
-10.2331171036 1.3908792734 -0.5985814929
-10.2430295944 1.4286668301 -0.5994528532
-10.2528038025 1.4665405750 -0.6003241539
-10.2525606155 1.5030466318 -0.6006146073
-10.2620582581 1.5410591364 -0.6014858484
-10.2566165924 1.5768704414 -0.6014858484
-7.2680907249 1.1418092251 -0.4257741570
-7.1704330444 1.1520581245 -0.4202559292
-10.2838659286 1.6915014982 -0.6040997505
-5.7953672409 0.9924541712 -0.3398061097
-5.7820348740 1.0109490156 -0.3392252326
-5.7882971764 1.0328882933 -0.3398061097
-5.7846565247 1.0530866385 -0.3398061097
-5.7662248611 1.0705268383 -0.3389348090
-5.7575492859 1.0897151232 -0.3386443853
-5.7439093590 1.1079059839 -0.3380635083
-5.7302136421 1.1260150671 -0.3374826610
-5.7213544846 1.1450259686 -0.3371922076
-5.7122292519 1.1649867296 -0.3369017839
-5.6981487274 1.1838747263 -0.3363209367
-5.6890983582 1.2027219534 -0.3360304832
-5.6848654747 1.2225729227 -0.3360304832
-5.6756877899 1.2413381338 -0.3357400596
-5.6713204384 1.2611420155 -0.3357400596
-5.6668839455 1.2809306383 -0.3357400596
-5.6575140953 1.2995833158 -0.3354496360
-5.6529436111 1.3193234205 -0.3354496360
-5.6434478760 1.3378915787 -0.3351591825
-5.6387434006 1.3575824499 -0.3351591825
-5.6194267273 1.3736872673 -0.3342878819
-5.6242842674 1.3957090378 -0.3348687589
-5.9290909767 1.4936444759 -0.3534564376
-6.3474807739 1.6703304052 -0.3795953691
-6.3705415726 1.7002248764 -0.3813379705
-6.4031052589 1.7329146862 -0.3836614490
-6.3918986320 1.7550450563 -0.3833709955
-6.3950376511 1.7811477184 -0.3839518428
-6.1857309341 1.7693045139 -0.3720441163
-6.0644822121 1.7574448586 -0.3650737405
-6.0774636269 1.7842434645 -0.3662354648
-6.1381645203 1.8254227638 -0.3703015447
-6.1556463242 1.8540551662 -0.3717536926
-6.2398281097 1.9032750130 -0.3772719204
-8.8269233704 2.7622482777 -0.5358480811
-8.8219852448 2.7945530415 -0.5361385345
-8.8406915665 2.8344905376 -0.5378811359
-8.8402366638 2.8684189320 -0.5384619832
-9.3551750183 3.1082005501 -0.5712808967
-6.7675871849 2.2995131016 -0.4135759771
-6.7453618050 2.3182442188 -0.4127047062
-10.7683563232 3.7885503769 -0.6618958116
-10.7409610748 3.8210897446 -0.6610245705
-10.7228612900 3.8568670750 -0.6607341170
-10.7079734802 3.8980116844 -0.6607341170
-7.3454995155 2.7012548447 -0.4530748129
-10.6338663101 3.9976198673 -0.6587011218
-10.4192390442 3.9583899975 -0.6462124586
-8.6908159256 3.3355536461 -0.5393332839
-8.6698141098 3.3622543812 -0.5387524366
-8.6580247879 3.3924968243 -0.5387524366
-8.6832494736 3.4374196529 -0.5410758853
-8.6804656982 3.4714207649 -0.5416567326
-6.5028443336 2.6519258022 -0.4063151777
-6.4843196869 2.6707992554 -0.4057343006
-8.7186889648 3.6287734509 -0.5471749902
-8.7243709564 3.6669313908 -0.5483366847
-8.7344865799 3.7071263790 -0.5497888923
-5.4712009430 2.3878536224 -0.3450339139
-5.4400024414 2.3968532085 -0.3435817361
-5.4224848747 2.4117619991 -0.3430008590
-5.4276890755 2.4368207455 -0.3438721895
-5.4641633034 2.4773504734 -0.3467764854
-5.4319291115 2.4879000187 -0.3453243077
-8.7133855820 4.1781430244 -0.5599539876
-8.7436685562 4.2302989960 -0.5628582835
-8.7288484573 4.2607936859 -0.5628582835
-8.7004928589 4.2846140862 -0.5619870424
-8.6720762253 4.3082876205 -0.5611157417
-8.6257562637 4.3228597641 -0.5590826869
-8.5794391632 4.3371634483 -0.5570496917
-8.5197925568 4.3443846703 -0.5541453362
-8.4912633896 4.3672404289 -0.5532740355
-8.4626789093 4.3899507523 -0.5524027944
-8.4340391159 4.4125146866 -0.5515314341
-8.4053430557 4.4349341393 -0.5506601334
-8.3854064941 4.4618992805 -0.5503696799
-8.3433990479 4.4769668579 -0.5486271381
-8.3233318329 4.5036849976 -0.5483366847
-4.0750994682 2.2947139740 -0.2698118687
-4.0583887100 2.3039858341 -0.2692309916
-4.0589799881 2.3231081963 -0.2698118687
-4.0850000381 2.3579711914 -0.2721353173
-4.0763297081 2.3729281425 -0.2721353173
-4.0551156998 2.3795490265 -0.2712640464
-4.0381979942 2.3885970116 -0.2706831396
-4.0169825554 2.3949947357 -0.2698118687
-4.0043220520 2.4064269066 -0.2695214152
-4.0001645088 2.4229807854 -0.2698118687
-4.0001969337 2.4421405792 -0.2703927159
-4.0043931007 2.4639508724 -0.2712640464
-4.0000066757 2.4805488586 -0.2715544403
-0.9480023980 0.5922495723 -0.0627334341
-0.9669856429 0.6089538932 -0.0641856045
-0.9186335802 0.5826866627 -0.0609908402
-0.9207865000 0.5885987878 -0.0612812713
-0.8978114724 0.5781909823 -0.0598291084
-0.9041345716 0.5867979527 -0.0604099743
-0.9020807743 0.5899503827 -0.0604099743
-0.9041702151 0.5958629251 -0.0607004054
-0.9019801021 0.5991729498 -0.0607004054
-0.8997780681 0.6024747491 -0.0607004054
-0.8976696134 0.6056118608 -0.0607004054
-0.8996641636 0.6115683317 -0.0609908402
-0.9016281962 0.6175458431 -0.0612812713
-0.9117501378 0.6292548180 -0.0621525683
-0.9258855581 0.6439114809 -0.0633143038
-0.9317808747 0.6529068351 -0.0638951659
-0.9254317880 0.6532576680 -0.0636047348
-0.9109835625 0.6477476954 -0.0627334341
-0.8925414681 0.6392188072 -0.0615717024
-0.8903048038 0.6423304677 -0.0615717024
-0.9202441573 0.6690691710 -0.0638951659
-0.8938247561 0.6544671655 -0.0621525683
-4.2977728844 3.1955902576 -0.3093106747
-0.9211716652 0.6846618652 -0.0644760355
-4.2594323158 3.2134747505 -0.3081489503
-4.2481894493 3.2283232212 -0.3081489503
-4.2487754822 3.2522470951 -0.3090202510
-4.2373971939 3.2670581341 -0.3090202510
-4.2259674072 3.2818293571 -0.3090202510
-4.2262721062 3.3057985306 -0.3098915517
-5.1236362457 4.0381016731 -0.3772719204
-5.3087644577 4.2144012451 -0.3920839727
-2.0252628326 1.6625306606 -0.1501536518
-2.0076358318 1.6603752375 -0.1492823362
-1.9979990721 1.6641705036 -0.1489919126
-2.0074484348 1.6839979887 -0.1501536518
-1.9825261831 1.6748490334 -0.1487014741
-2.0032331944 1.7044560909 -0.1507345140
-2.0161893368 1.7277168036 -0.1521866620
-2.0290081501 1.7510882616 -0.1536388397
-2.0341658592 1.7680059671 -0.1545101255
-2.0429797173 1.7882759571 -0.1556718498
-2.2540237904 2.0017666817 -0.1730978191
-2.2507371902 2.0129563808 -0.1733882427
-2.2066669464 1.9873293638 -0.1704839170
-2.1591117382 1.9580595493 -0.1672891527
-2.2405736446 2.0465335846 -0.1742595434
-2.2627582550 2.0814282894 -0.1765830070
-2.2554788589 2.0893139839 -0.1765830070
-2.8737676144 2.7215971947 -0.2279895693
-2.0284082890 2.0018126965 -0.1635135263
-2.9190125465 2.9042942524 -0.2372834235
-2.9581577778 2.9639921188 -0.2413494587
-2.9337570667 2.9601006508 -0.2401877344
-2.9164133072 2.9631991386 -0.2396068722
-2.8851461411 2.9519155025 -0.2378642708
-2.8574655056 2.9440364838 -0.2364121079
-2.8367931843 2.9431982040 -0.2355408072
-2.8196091652 2.9458613396 -0.2349599600
-2.8024408817 2.9484403133 -0.2343790829
-1.7523640394 1.8667103052 -0.1466684490
-1.7356491089 1.8618413210 -0.1457971483
-1.7426722050 1.8825689554 -0.1469588876
-1.7360903025 1.8886405230 -0.1469588876
-1.7261297703 1.8909952641 -0.1466684490
-1.7195185423 1.8970088959 -0.1466684490
-1.7095543146 1.8992830515 -0.1463780254
-1.6995955706 1.9015101194 -0.1460875720
-1.6863367558 1.8999507427 -0.1455067098
-1.6829870939 1.9095773697 -0.1457971483
-1.6726977825 1.9119693041 -0.1455067098
-1.6395601034 1.8878811598 -0.1431832612
-3.8293132782 4.5795464516 -0.3450339139
-3.8133032322 4.5928859711 -0.3450339139
-3.7877330780 4.5946054459 -0.3441625834
-3.7811467648 4.6193952560 -0.3450339139
-3.7587096691 4.6248126030 -0.3444530368
-3.7488059998 4.6456794739 -0.3450339139
-3.7388005257 4.6665344238 -0.3456147611
-1.4657053947 1.8505545855 -0.1350511461
-1.4192419052 1.8045600653 -0.1312755197
-1.4037457705 1.7976787090 -0.1304042190
-1.3944128752 1.7986160517 -0.1301137954
-1.3395626545 1.7400687933 -0.1254668683
-2.5148322582 3.2982904911 -0.2390259951
-2.9807255268 3.9972362518 -0.2878186703
-2.9489610195 3.9835257530 -0.2860760689
-2.9320869446 3.9897699356 -0.2857856750
-2.9291906357 4.0166349411 -0.2869473994
-2.9115278721 4.0232963562 -0.2866569459
-2.8945584297 4.0293779373 -0.2863665223
-2.8717939854 4.0272560120 -0.2854952216
-2.8548393250 4.0331783295 -0.2852047682
-2.8264179230 4.0226821899 -0.2837526202
-2.8209118843 4.0448160172 -0.2846239209
-2.8011026382 4.0464229584 -0.2840430439
-2.7841377258 4.0520596504 -0.2837526202
-2.7980551720 4.1030225754 -0.2866569459
-2.7837162018 4.1127648354 -0.2866569459
-3.3184554577 5.3774967194 -0.3653641939
-3.3074717522 5.4018259048 -0.3662354648
-3.2834200859 5.4048018456 -0.3656546175
-3.3159956932 5.5017747879 -0.3714632690
-0.6263955235 1.0557713509 -0.0691229478
-0.6000884771 1.0191365480 -0.0665090606
-0.5990254283 1.0255465508 -0.0667994916
-0.5979249477 1.0319614410 -0.0670899227
-0.5916714668 1.0298068523 -0.0667994916
-0.5878931880 1.0319683552 -0.0667994916
-0.5818514824 1.0296573639 -0.0665090606
-0.5782535672 1.0316822529 -0.0665090606
-0.5746488571 1.0336943865 -0.0665090606
-0.5734273195 1.0400761366 -0.0667994916
-0.5697933435 1.0420713425 -0.0667994916
-0.5685119629 1.0484526157 -0.0670899227
-0.5648484826 1.0504307747 -0.0670899227
-0.5635071397 1.0568110943 -0.0673803538
-0.5621281862 1.0631947517 -0.0676707849
-0.5607114434 1.0695816278 -0.0679612234
-0.5592569709 1.0759714842 -0.0682516545
-0.5577643514 1.0823643208 -0.0685420856
-0.5584855676 1.0932146311 -0.0691229478
-0.5524303913 1.0906946659 -0.0688325167
-0.5552804470 1.1060280800 -0.0697038174
-0.5668485165 1.1393080950 -0.0717368498
-0.5632272363 1.1522248983 -0.0723177120
-0.3551728725 0.7703186274 -0.0470500775
-0.3463457525 0.7578938603 -0.0461787768
-0.3477570713 0.7682189941 -0.0467596464
-0.3370191157 0.7511585355 -0.0455979146
-0.3343950510 0.7523303628 -0.0455979146
-0.3297853470 0.7489116788 -0.0453074798
-0.3252035975 0.7454699874 -0.0450170487
-0.3206499219 0.7420055270 -0.0447266176
-0.3163820505 0.7384080887 -0.0444361828
-0.3098371923 0.7303461432 -0.0438553207
-0.3052568436 0.7268616557 -0.0435648859
-0.3008325994 0.7233008742 -0.0432744548
-0.2964369357 0.7197181582 -0.0429840237
-0.2939227223 0.7207485437 -0.0429840237
-0.2895683646 0.7171287537 -0.0426935852
-0.2852428854 0.7134873867 -0.0424031541
-0.2809463739 0.7098246813 -0.0421127230
-0.2766789496 0.7061406970 -0.0418222882
-0.2724405229 0.7024356723 -0.0415318571
-0.2682315111 0.6987097263 -0.0412414260
-0.2640518546 0.6949629188 -0.0409509912
-0.2581789196 0.6865107417 -0.0403701290
-0.2557809949 0.6874077320 -0.0403701290
-0.2533797920 0.6882964373 -0.0403701290
-0.2509756982 0.6891766787 -0.0403701290
-0.2485685199 0.6900485754 -0.0403701290
-0.2445175946 0.6861978173 -0.0400796942
-0.2388723195 0.6776073575 -0.0394988321
-0.2348976582 0.6737115979 -0.0392083973
-0.2309532762 0.6697962284 -0.0389179625
-0.2270391136 0.6658616662 -0.0386275314
-0.2247134745 0.6666501164 -0.0386275314
-0.2208434641 0.6626829505 -0.0383370966
-0.2170037180 0.6586969495 -0.0380466655
-0.2147031575 0.6594504118 -0.0380466655
-0.2109081149 0.6554324627 -0.0377562344
-0.2086189836 0.6561646461 -0.0377562344
-0.2048687488 0.6521151662 -0.0374658033
-0.2025910616 0.6528263688 -0.0374658033
-0.2003110647 0.6535295248 -0.0374658033
-0.1966201365 0.6494360566 -0.0371753685
-0.1943520308 0.6501184106 -0.0371753685
-0.1920815408 0.6507928371 -0.0371753685
-0.1884502918 0.6466562152 -0.0368849374
-0.1861919165 0.6473100781 -0.0368849374
-0.1826065779 0.6431434751 -0.0365945064
-0.1790526211 0.6389598250 -0.0363040715
-0.1755301058 0.6347592473 -0.0360136405
-0.1720389724 0.6305419803 -0.0357232094
-0.1683610529 0.6263667941 -0.0354327746
-0.1661734730 0.6269507408 -0.0354327746
-0.1627620757 0.6226872206 -0.0351423398
-0.1593825072 0.6184076667 -0.0348519087
-0.1548465341 0.6092640758 -0.0342710428
-0.1527190506 0.6098008156 -0.0342710428
-0.1494351625 0.6054739952 -0.0339806117
-0.1450463533 0.5962713361 -0.0333997458
-0.1429639757 0.5967740417 -0.0333997458
-0.1397765428 0.5924013853 -0.0331093147
-0.1366216838 0.5880137086 -0.0328188799
-0.1334988773 0.5836113691 -0.0325284488
-0.1325133294 0.5889531970 -0.0328188799
-0.1314918250 0.5942952037 -0.0331093147
-0.1294164211 0.5947505832 -0.0331093147
-0.1253374815 0.5854184031 -0.0325284488
-0.1223090589 0.5809587836 -0.0322380178
-0.1183466241 0.5715881586 -0.0316571519
-0.1154006943 0.5670974255 -0.0313667171
-0.1152858660 0.5773041248 -0.0319475830
-0.1141858026 0.5826098323 -0.0322380178
-0.1121513024 0.5830048919 -0.0322380178
-0.1083530039 0.5735665560 -0.0316571519
-0.1054859012 0.5690250397 -0.0313667171
-0.1026518494 0.5644706488 -0.0310762841
-0.1006810218 0.5648255348 -0.0310762841
-0.0978960171 0.5602486134 -0.0307858512
-0.0959399492 0.5605868697 -0.0307858512
-0.0939824432 0.5609183908 -0.0307858512
-0.0912627354 0.5563098192 -0.0304954201
-0.0893204659 0.5566250086 -0.0304954201
-0.0873768255 0.5569334030 -0.0304954201
-0.0847230405 0.5522940755 -0.0302049872
-0.0827945471 0.5525864959 -0.0302049872
-0.0801902115 0.5479264259 -0.0299145542
-0.0782772675 0.5482029319 -0.0299145542
-0.0757227987 0.5435225368 -0.0296241231
-0.0750712752 0.5536885858 -0.0302049872
-0.0719265267 0.5440379381 -0.0296241231
-0.0706153587 0.5492424369 -0.0299145542
-0.0643236712 0.5449891686 -0.0296241231
-0.0612889752 0.5352921486 -0.0290432572
-0.0579396896 0.5406851768 -0.0293336902
-0.0555867329 0.5359143019 -0.0290432572
0.1279004365 0.5848638415 -0.0325284488
0.1468475312 0.6573534608 -0.0368849374
0.1468532085 0.6471195221 -0.0363040715
0.1527095586 0.6611402631 -0.0371753685
0.1549011618 0.6606302261 -0.0371753685
0.1595961303 0.6697783470 -0.0377562344
0.1631447226 0.6740593910 -0.0380466655
0.1679541320 0.6831617355 -0.0386275314
0.1728290915 0.6922386289 -0.0392083973
0.1752441972 0.6916311979 -0.0392083973
0.1763782054 0.6861903071 -0.0389179625
0.1787721813 0.6855705380 -0.0389179625
0.1798513681 0.6801264882 -0.0386275314
0.1808947623 0.6746833324 -0.0383370966
0.1832485497 0.6740478277 -0.0383370966
0.1842371374 0.6686022282 -0.0380466655
0.1865696758 0.6679551601 -0.0380466655
0.1902970374 0.6720919013 -0.0383370966
0.1926420629 0.6714234948 -0.0383370966
0.1949844062 0.6707470417 -0.0383370966
0.1973246783 0.6700623035 -0.0383370966
0.1996622384 0.6693694592 -0.0383370966
0.2019976825 0.6686683893 -0.0383370966
0.2043306828 0.6679592133 -0.0383370966
0.2066608518 0.6672419310 -0.0383370966
0.2091049254 0.6664800644 -0.0383370966
0.2113139331 0.6657829285 -0.0383370966
0.2120736092 0.6603007317 -0.0380466655
0.2143773437 0.6595563889 -0.0380466655
0.2166781276 0.6588041186 -0.0380466655
0.2173638493 0.6533198953 -0.0377562344
0.2197568268 0.6525188684 -0.0377562344
0.2221468836 0.6517090797 -0.0377562344
0.2244205326 0.6509296298 -0.0377562344
0.2250113040 0.6454419494 -0.0374658033
0.2272627652 0.6446526051 -0.0374658033
0.2295117527 0.6438553929 -0.0374658033
0.2317576408 0.6430503726 -0.0374658033
0.2340010107 0.6422374249 -0.0374658033
0.2362415493 0.6414166689 -0.0374658033
0.2384788841 0.6405881643 -0.0374658033
0.2407136112 0.6397517920 -0.0374658033
0.2429451197 0.6389076710 -0.0374658033
0.2451739609 0.6380557418 -0.0374658033
0.2473998368 0.6371959448 -0.0374658033
0.2496223748 0.6363285780 -0.0374658033
0.2518421710 0.6354532838 -0.0374658033
0.2540585995 0.6345704198 -0.0374658033
0.2560511231 0.6337690353 -0.0374658033
0.2563394010 0.6282649040 -0.0371753685
0.2585310042 0.6273662448 -0.0371753685
0.2588734329 0.6218217611 -0.0368849374
0.2589636743 0.6163737178 -0.0365945064
0.2611137927 0.6154659390 -0.0365945064
0.2632603943 0.6145508289 -0.0365945064
0.2654040754 0.6136280894 -0.0365945064
0.2675442398 0.6126979589 -0.0365945064
0.2696814537 0.6117602587 -0.0365945064
0.2718153894 0.6108151078 -0.0365945064
0.2739456892 0.6098626852 -0.0365945064
0.2760729492 0.6089026928 -0.0365945064
0.2781965435 0.6079353690 -0.0365945064
0.2824462950 0.6114751697 -0.0368849374
0.2845791578 0.6104854345 -0.0368849374
0.2867082357 0.6094884276 -0.0368849374
0.2888341248 0.6084838510 -0.0368849374
0.2887641191 0.6029875875 -0.0365945064
0.2908672988 0.6019758582 -0.0365945064
0.2929669321 0.6009567976 -0.0365945064
0.2950627208 0.5999305844 -0.0365945064
0.2971551716 0.5988969207 -0.0365945064
0.3015137315 0.6023016572 -0.0368849374
0.3036144078 0.6012454033 -0.0368849374
0.3057114482 0.6001818776 -0.0368849374
0.3054879904 0.5946896672 -0.0365945064
0.3075621128 0.5936196446 -0.0365945064
0.3096321821 0.5925425291 -0.0365945064
0.3116987646 0.5914580226 -0.0365945064
0.3137615621 0.5903663635 -0.0365945064
0.3158202469 0.5892676115 -0.0365945064
0.3178753555 0.5881615281 -0.0365945064
0.3199263215 0.5870484710 -0.0365945064
0.3195346594 0.5815729499 -0.0363040715
0.3215629160 0.5804539323 -0.0363040715
0.3235869408 0.5793280602 -0.0363040715
0.3256073296 0.5781949162 -0.0363040715
0.3276234567 0.5770549178 -0.0363040715
0.3271212280 0.5715958476 -0.0360136405
0.3291146159 0.5704504251 -0.0360136405
0.3285590410 0.5650039911 -0.0357232094
0.3305293620 0.5638536215 -0.0357232094
0.3299208283 0.5584201813 -0.0354327746
0.3318681717 0.5572650433 -0.0354327746
0.3364158571 0.5603614450 -0.0357232094
0.3226543665 0.5336888433 -0.0339806117
0.3406385779 0.4740087688 -0.0316571519
0.3867537677 0.5330587626 -0.0360136405
0.3887051344 0.5316374898 -0.0360136405
0.3966380656 0.5381978750 -0.0365945064
0.3893086016 0.5249946117 -0.0357232094
0.3911389112 0.5236324072 -0.0357232094
0.3899303973 0.5183002353 -0.0354327746
0.3886896372 0.5129826665 -0.0351423398
0.3843549192 0.5037378669 -0.0345614739
0.3861110210 0.5023931265 -0.0345614739
0.3816847205 0.4932001233 -0.0339806117
0.3834897578 0.4917979240 -0.0339806117
0.3882347047 0.4944228828 -0.0342710428
0.3930878043 0.4969532490 -0.0345614739
0.3980507553 0.4993860126 -0.0348519087
0.3997046053 0.4980632663 -0.0348519087
0.3983563781 0.4927400649 -0.0345614739
0.3969745338 0.4874334633 -0.0342710428
0.3953066766 0.4823507369 -0.0339806117
0.3969880641 0.4809678495 -0.0339806117
0.4019726813 0.4833199084 -0.0342710428
0.4070646465 0.4855707288 -0.0345614739
0.4117540121 0.4881489873 -0.0348519087
0.3808197379 0.4489400983 -0.0319475830
0.3823845685 0.4476079941 -0.0319475830
0.4354019761 0.4394928515 -0.0336901769
0.4369333088 0.4379704595 -0.0336901769
0.4563003182 0.4538952410 -0.0351423398
0.4578818083 0.4522998035 -0.0351423398
0.4594579041 0.4506986737 -0.0351423398
0.4610284269 0.4490920305 -0.0351423398
0.4625931382 0.4474801123 -0.0351423398
0.4677809477 0.4492903352 -0.0354327746
0.4693462849 0.4476548731 -0.0354327746
0.4745585024 0.4494160712 -0.0357232094
0.4761244655 0.4477567077 -0.0357232094
0.4776843786 0.4460921288 -0.0357232094
0.4792387187 0.4444218874 -0.0357232094
0.4770874679 0.4393954873 -0.0354327746
0.4711959958 0.4310511947 -0.0348519087
0.4689750373 0.4260786176 -0.0345614739
0.4629905224 0.4178149998 -0.0339806117
0.4568111897 0.4097578228 -0.0333997458
0.4507262409 0.4015862048 -0.0328188799
0.4408221245 0.3901880682 -0.0319475830
0.4421813488 0.3886470497 -0.0319475830
0.4435353577 0.3871011138 -0.0319475830
0.4524874091 0.3920195699 -0.0325284488
0.4652923942 0.4001011252 -0.0333997458
0.4781592190 0.4080979526 -0.0342710428
0.4834161997 0.4096210003 -0.0345614739
0.4848431647 0.4079309702 -0.0345614739
0.4862640500 0.4062362015 -0.0345614739
0.4838104546 0.4013821185 -0.0342710428
0.4852086604 0.3996907771 -0.0342710428
0.4866007864 0.3979947865 -0.0342710428
0.4879871607 0.3962936997 -0.0342710428
0.4893673956 0.3945880532 -0.0342710428
0.4868186712 0.3897911906 -0.0339806117
0.4881764054 0.3880894184 -0.0339806117
0.4895280004 0.3863831460 -0.0339806117
0.4869185388 0.3816270530 -0.0336901769
0.4961793721 0.3859873116 -0.0342710428
0.5015001893 0.3872700632 -0.0345614739
0.5028490424 0.3855170310 -0.0345614739
0.5121864080 0.3897382915 -0.0351423398
0.5175516605 0.3909233809 -0.0354327746
0.5309675336 0.3979986906 -0.0363040715
0.5122111440 0.3814060390 -0.0348519087
0.4973843694 0.3678826392 -0.0336901769
0.4865184724 0.3573869169 -0.0328188799
0.4755856395 0.3469714224 -0.0319475830
0.4727245569 0.3424185216 -0.0316571519
0.4739170074 0.3407662511 -0.0316571519
0.4751036763 0.3391097784 -0.0316571519
0.4803836942 0.3402974606 -0.0319475830
0.4897871614 0.3442858756 -0.0325284488
0.4992240369 0.3482129276 -0.0331093147
0.5169521570 0.3576878905 -0.0342710428
0.5347523689 0.3670431972 -0.0354327746
0.5484753847 0.3735026419 -0.0363040715
0.5539339781 0.3743472993 -0.0365945064
0.5552371740 0.3724115789 -0.0365945064
0.5607110858 0.3732035458 -0.0368849374
0.5661972165 0.3739617765 -0.0371753685
0.5758914351 0.3773897290 -0.0377562344
0.5896883607 0.3836485445 -0.0386275314
0.6036660075 0.3896140456 -0.0394988321
0.6219158173 0.3981468379 -0.0406605601
0.6148364544 0.3906819820 -0.0400796942
0.6119546890 0.3859022260 -0.0397892632
0.6090471148 0.3811473846 -0.0394988321
0.6103737354 0.3790192902 -0.0394988321
0.6074239612 0.3742997348 -0.0392083973
0.6087267399 0.3721773326 -0.0392083973
0.6057350636 0.3674934208 -0.0389179625
0.6070142388 0.3653766513 -0.0389179625
0.6039810181 0.3607290983 -0.0386275314
0.6052365899 0.3586184978 -0.0386275314
0.6064845920 0.3565038145 -0.0386275314
0.6077253819 0.3543845117 -0.0386275314
0.6002793908 0.3473282754 -0.0380466655
0.5927914977 0.3403287232 -0.0374658033
0.5854695439 0.3228066266 -0.0365945064
0.5568607450 0.3023023307 -0.0345614739
0.5314224362 0.2863839865 -0.0328188799
0.5103032589 0.2729604244 -0.0313667171
0.5378399491 0.2849649787 -0.0331093147
0.5210747719 0.2739560902 -0.0319475830
0.6655346155 0.3423551619 -0.0412414260
0.6578000188 0.3355582058 -0.0406605601
0.6768496633 0.3421410322 -0.0418222882
0.6780399084 0.3397761583 -0.0418222882
0.6746187210 0.3354539573 -0.0415318571
0.6712927818 0.3309220672 -0.0412414260
0.6679432988 0.3264178634 -0.0409509912
0.6690787077 0.3240841925 -0.0409509912
0.6702057719 0.3217468858 -0.0409509912
0.6668021083 0.3172934651 -0.0406605601
0.6679056883 0.3149638176 -0.0406605601
0.6644635201 0.3105503917 -0.0403701290
0.6655435562 0.3082289696 -0.0403701290
0.6620634794 0.3038555682 -0.0400796942
0.6585612297 0.2995099425 -0.0397892632
0.6550367475 0.2951924503 -0.0394988321
0.6514900923 0.2909035981 -0.0392083973
0.6479215622 0.2866427600 -0.0389179625
0.6443312168 0.2824107409 -0.0386275314
0.6407194138 0.2782070041 -0.0383370966
0.6370861530 0.2740319371 -0.0380466655
0.6380387545 0.2718065977 -0.0380466655
0.6389837265 0.2695776820 -0.0380466655
0.6399207711 0.2673457563 -0.0380466655
0.6408501267 0.2651102543 -0.0380466655
0.6417716742 0.2628715038 -0.0380466655
0.6426852942 0.2606298923 -0.0380466655
0.6389446855 0.2565610707 -0.0377562344
0.6444891095 0.2561368644 -0.0380466655
0.6593565345 0.2592592537 -0.0389179625
0.6835841537 0.2658308744 -0.0403701290
0.6890867352 0.2654424012 -0.0406605601
0.6432392597 0.2455956191 -0.0377562344
0.6347265840 0.2398933619 -0.0371753685
0.6121149659 0.2291196436 -0.0357232094
0.6035209298 0.2235918641 -0.0351423398
0.5995969176 0.2198051810 -0.0348519087
0.5956537724 0.2160489261 -0.0345614739
0.6011168361 0.2156139463 -0.0348519087
0.6018658280 0.2135142237 -0.0348519087
0.6026074290 0.2114121914 -0.0348519087
0.6033417583 0.2093072981 -0.0348519087
0.5993336439 0.2056204230 -0.0345614739
0.5953072906 0.2019638270 -0.0342710428
0.5912628174 0.1983378530 -0.0339806117
0.5872001648 0.1947428733 -0.0336901769
0.5831198692 0.1911784261 -0.0333997458
0.5790217519 0.1876451224 -0.0331093147
0.5796732306 0.1856227070 -0.0331093147
0.5755455494 0.1821344644 -0.0328188799
0.5761777163 0.1801244915 -0.0328188799
0.5768030286 0.1781120598 -0.0328188799
0.5774211884 0.1760977209 -0.0328188799
0.5780323744 0.1740809679 -0.0328188799
0.5786365271 0.1720620692 -0.0328188799
0.5744318366 0.1686780751 -0.0325284488
0.5750171542 0.1666718125 -0.0325284488
0.5707271695 0.1635331810 -0.0322380178
0.5713227391 0.1614403278 -0.0322380178
0.5670902729 0.1580489278 -0.0319475830
0.5627596378 0.1549856812 -0.0316571519
0.5632971525 0.1530205011 -0.0316571519
0.5589945912 0.1498059332 -0.0313667171
0.5595141649 0.1478536427 -0.0313667171
0.5552102923 0.1445893645 -0.0310762841
0.5556867123 0.1427474022 -0.0310762841
0.5561323762 0.1410010308 -0.0310762841
0.5615239739 0.1400273144 -0.0313667171
0.5571510792 0.1369204968 -0.0310762841
0.5576255918 0.1349750012 -0.0310762841
0.5580933690 0.1330275983 -0.0310762841
0.5536842942 0.1299840063 -0.0307858512
0.5541346669 0.1280504018 -0.0307858512
0.5497007370 0.1250544190 -0.0304954201
0.5501338840 0.1231349930 -0.0304954201
0.5505603552 0.1212138236 -0.0304954201
0.5509800911 0.1192914248 -0.0304954201
0.5513931513 0.1173673198 -0.0304954201
0.5566948056 0.1164172813 -0.0307858512
0.5570977926 0.1144734994 -0.0307858512
0.5623959899 0.1134693846 -0.0310762841
0.5676938295 0.1124299243 -0.0313667171
0.5386322141 0.1050051004 -0.0296241231
0.5340839028 0.1022342443 -0.0293336902
0.5295228362 0.0994966924 -0.0290432572
0.5351251364 0.0966360345 -0.0293336902
0.5403827429 0.0955886841 -0.0296241231
0.5308604240 0.0920935497 -0.0290432572
0.5364222527 0.0891549513 -0.0293336902
0.5317654610 0.0867151991 -0.0290432572
0.5320649147 0.0848583430 -0.0290432572
0.5323578715 0.0830007270 -0.0290432572
0.4776723683 -0.2614357769 -0.0088134650
0.5119673610 -0.2820683420 -0.0095115621
0.5109795928 -0.2838537395 -0.0095115621
0.5232417583 -0.2926575840 -0.0097733475
0.5484794378 -0.3089739084 -0.0102969194
0.5648720860 -0.3206087947 -0.0106459679
0.5855500698 -0.3348074853 -0.0110822776
0.6017839313 -0.3466933072 -0.0114313262
0.6092559695 -0.3537441492 -0.0116058495
0.6166859865 -0.3608513176 -0.0117803747
0.6197481751 -0.3655081689 -0.0118676368
0.6227852702 -0.3701907694 -0.0119548980
0.6257972121 -0.3748989701 -0.0120421601
0.6244847775 -0.3770811558 -0.0120421601
0.6274548173 -0.3818252683 -0.0121294223
0.6261181831 -0.3840131760 -0.0121294223
0.6247739196 -0.3861964047 -0.0121294223
0.6276850104 -0.3909862339 -0.0122166844
0.6263164282 -0.3931748867 -0.0122166844
0.6249401569 -0.3953587413 -0.0122166844
0.6235563159 -0.3975377977 -0.0122166844
0.6263909340 -0.4023826122 -0.0123039465
0.6165490150 -0.3991959691 -0.0121294223
0.6361886859 -0.4148459435 -0.0125657320
0.6557264328 -0.4306377769 -0.0130020427
0.8431645036 -0.5640792251 -0.0170160960
0.8411903977 -0.5670189261 -0.0170160960
0.8558095694 -0.5810962915 -0.0173651446
0.9324576259 -0.6372915506 -0.0190231241
3.8097689152 -2.6026241779 -0.0798447579
3.8171467781 -2.6272246838 -0.0801938027
3.8079528809 -2.6405327320 -0.0801938027
3.7905094624 -2.6480927467 -0.0800192878
3.7812428474 -2.6613080502 -0.0800192878
3.7719299793 -2.6744909286 -0.0800192878
3.7625713348 -2.6876411438 -0.0800192878
3.7491054535 -2.6978433132 -0.0799320191
3.7396652699 -2.7109136581 -0.0799320191
3.7261388302 -2.7210075855 -0.0798447579
3.7125871181 -2.7310402393 -0.0797574893
3.7030315399 -2.7439830303 -0.0797574893
3.6934306622 -2.7568919659 -0.0797574893
3.6797857285 -2.7667684555 -0.0796702355
3.6701054573 -2.7795963287 -0.0796702355
3.6603806019 -2.7923905849 -0.0796702355
3.6466431618 -2.8021094799 -0.0795829743
3.6328825951 -2.8117661476 -0.0794957057
3.6230454445 -2.8244302273 -0.0794957057
3.6131644249 -2.8370597363 -0.0794957057
3.6032390594 -2.8496549129 -0.0794957057
3.5932698250 -2.8622152805 -0.0794957057
3.5832571983 -2.8747403622 -0.0794957057
3.5742082596 -2.8859834671 -0.0794957057
3.5641124249 -2.8984422684 -0.0794957057
3.5539731979 -2.9108655453 -0.0794957057
3.5167686939 -2.9010179043 -0.0788848773
1.2283655405 -1.0397799015 -0.0274002776
1.2056506872 -1.0279108286 -0.0269639678
1.1868380308 -1.0191394091 -0.0266149193
1.1832734346 -1.0232759714 -0.0266149193
1.1532235146 -1.0045107603 -0.0260040853
1.1044687033 -0.9691330791 -0.0249569397
1.0710101128 -0.9466127157 -0.0242588446
1.0339753628 -0.9205616117 -0.0234734863
1.0008715391 -0.8975861073 -0.0227753893
0.9753888845 -0.8810618520 -0.0222518183
0.9500340819 -0.8643709421 -0.0217282455
0.9285084009 -0.8508753181 -0.0212919358
0.9033999443 -0.8338658810 -0.0207683630
0.8820988536 -0.8200789094 -0.0203320533
0.8645704389 -0.8095534444 -0.0199830048
0.8434731364 -0.7955031395 -0.0195466951
0.8261259794 -0.7847410440 -0.0191976484
0.8088642955 -0.7738675475 -0.0188485980
0.7955736518 -0.7660564780 -0.0185868125
0.7784690261 -0.7549806237 -0.0182377640
0.7578572631 -0.7403200865 -0.0178014543
0.7409397364 -0.7290123701 -0.0174524058
0.7205405235 -0.7140960097 -0.0170160960
0.6966969967 -0.6955342889 -0.0164925233
0.6765375137 -0.6803394556 -0.0160562135
0.6564928889 -0.6650126576 -0.0156199038
0.6400844455 -0.6531035900 -0.0152708553
0.6307840943 -0.6482110620 -0.0150963319
0.6215257049 -0.6432616115 -0.0149218068
0.6088262200 -0.6346697807 -0.0146600213
0.5996654034 -0.6295951605 -0.0144854970
0.5940057635 -0.6280744672 -0.0143982349
0.5849183798 -0.6228998899 -0.0142237116
0.5758744478 -0.6176696420 -0.0140491873
0.5702945590 -0.6160299182 -0.0139619242
0.5613256693 -0.6107008457 -0.0137874000
0.5524009466 -0.6053168178 -0.0136128766
0.5367568731 -0.5925146341 -0.0132638291
0.5245781541 -0.5833042264 -0.0130020427
0.5091142058 -0.5703108907 -0.0126529941
0.5004339814 -0.5646507144 -0.0124784699
0.4953261316 -0.5624927282 -0.0123912077
0.4966781139 -0.5679572821 -0.0124784699
0.4814709425 -0.5546853542 -0.0121294223
0.4828240573 -0.5601246953 -0.0122166844
0.5005407333 -0.5844478607 -0.0127402563
0.5246251822 -0.6164712906 -0.0134383524
3.4206373692 -4.0008430481 -0.0911888257
3.4001717567 -4.0051436424 -0.0910142958
3.3861703873 -4.0169878006 -0.0910142958
3.3785538673 -4.0364437103 -0.0911888257
3.3676428795 -4.0520539284 -0.0912760869
3.3566637039 -4.0676369667 -0.0913633406
3.3456170559 -4.0831928253 -0.0914506093
3.3345026970 -4.0987215042 -0.0915378705
3.3233208656 -4.1142215729 -0.0916251317
3.3089392185 -4.1257967949 -0.0916251317
3.2976357937 -4.1412301064 -0.0917124003
3.2862644196 -4.1566338539 -0.0917996541
3.2748258114 -4.1720089912 -0.0918869153
3.2633202076 -4.1873545647 -0.0919741839
3.2517471313 -4.2026710510 -0.0920614451
3.2401065826 -4.2179574966 -0.0921486989
3.2314350605 -4.2371859550 -0.0923232287
3.2166247368 -4.2484402657 -0.0923232287
3.2077913284 -4.2676281929 -0.0924977511
3.1928749084 -4.2787995338 -0.0924977511
3.1597003937 -4.3281388283 -0.0928467959
3.1504490376 -4.3472318649 -0.0930213258
3.1381788254 -4.3622579575 -0.0931085870
3.1258418560 -4.3772506714 -0.0931958482
2.7335555553 -3.8832266331 -0.0822008327
2.7343244553 -3.9132177830 -0.0826371387
2.7235021591 -3.9268429279 -0.0827243999
2.7097783089 -3.9363257885 -0.0827243999
2.6988465786 -3.9498853683 -0.0828116685
2.6878530979 -3.9634163380 -0.0828989297
2.6740019321 -3.9727747440 -0.0828989297
2.6628999710 -3.9862382412 -0.0829861909
2.6489691734 -3.9955091476 -0.0829861909
2.6377584934 -4.0089044571 -0.0830734521
2.6237487793 -4.0180873871 -0.0830734521
2.6124305725 -4.0314140320 -0.0831607133
2.5983426571 -4.0405082703 -0.0831607133
2.5869169235 -4.0537648201 -0.0832479820
2.5727508068 -4.0627703667 -0.0832479820
2.5612182617 -4.0759563446 -0.0833352432
2.5469746590 -4.0848717690 -0.0833352432
2.5353355408 -4.0979852676 -0.0834224969
2.5236356258 -4.1110677719 -0.0835097656
2.5092699528 -4.1198520660 -0.0835097656
2.4974641800 -4.1328616142 -0.0835970268
2.4855980873 -4.1458392143 -0.0836842880
2.4736719131 -4.1587834358 -0.0837715492
2.4616856575 -4.1716957092 -0.0838588104
2.4496393204 -4.1845746040 -0.0839460716
2.4400482178 -4.2017407417 -0.0841205940
2.4253664017 -4.2102322578 -0.0841205940
2.4106554985 -4.2186727524 -0.0841205940
2.0472779274 -3.6431226730 -0.0722529590
2.0394279957 -3.6589739323 -0.0724274889
2.0303487778 -3.6697337627 -0.0725147426
2.0271694660 -3.6943171024 -0.0728637949
2.0238430500 -3.7189226151 -0.0732128397
2.0227496624 -3.7479462624 -0.0736491531
2.0191133022 -3.7726025581 -0.0739981979
2.0129802227 -3.7928664684 -0.0742599890
2.0090641975 -3.8175537586 -0.0746090412
2.0026812553 -3.8378307819 -0.0748708248
1.9938783646 -3.8536722660 -0.0750453398
1.9918518066 -3.8828349113 -0.0754816532
1.9805579185 -3.8942174911 -0.0755689219
1.9714653492 -3.9100289345 -0.0757434368
2.3970005512 -4.7927947044 -0.0928467959
2.5738468170 -5.1906065941 -0.1004385948
2.4695367813 -5.0691928864 -0.0977334753
2.5237073898 -5.2262744904 -0.1006131172
2.5205855370 -5.2666034698 -0.1012239531
2.4721326828 -5.2121620178 -0.1000022888
2.3878648281 -5.0805668831 -0.0972971618
2.3024308681 -4.9439196587 -0.0945047811
2.2851595879 -4.9519262314 -0.0945047811
2.2761938572 -4.9780507088 -0.0948538259
2.2856822014 -5.0451369286 -0.0959882364
2.4153017998 -5.4308142662 -0.1030564532
2.3983502388 -5.4437851906 -0.1031437218
2.3833405972 -5.4612841606 -0.1033182442
2.3642628193 -5.4695701599 -0.1033182442
2.3629026413 -5.5191345215 -0.1041035950
2.3475339413 -5.5365509987 -0.1042781249
2.3068571091 -5.4940285683 -0.1033182442
2.2722759247 -5.4651322365 -0.1026201472
2.2455501556 -5.4491424561 -0.1021838412
2.2549099922 -5.5263524055 -0.1034927666
2.2543740273 -5.5805258751 -0.1043653935
2.2534861565 -5.6347618103 -0.1052380055
2.2438802719 -5.6708650589 -0.1057615802
2.2342033386 -5.7015395164 -0.1061978936
2.2180936337 -5.7131891251 -0.1062851474
2.0000000000 -5.2667798996 -0.0976462141
1.9551583529 -5.2035584450 -0.0963372812
1.9369821548 -5.2103519440 -0.0963372812
2.1113750935 -5.8013863564 -0.1070705056
2.0945065022 -5.8181257248 -0.1072450355
2.0792281628 -5.8395256996 -0.1075068191
2.0654900074 -5.8656039238 -0.1078558713
2.0466511250 -5.8774976730 -0.1079431325
1.6970633268 -4.9879994392 -0.0912760869
1.6828391552 -5.0033659935 -0.0914506093
1.6653635502 -5.0092096329 -0.0914506093
1.6541305780 -5.0339837074 -0.0917996541
1.6380978823 -5.0444798470 -0.0918869153
1.6235438585 -5.0596847534 -0.0920614451
1.6089041233 -5.0748486519 -0.0922359675
1.5926785469 -5.0852031708 -0.0923232287
1.5778833628 -5.1002802849 -0.0924977511
1.5630023479 -5.1153163910 -0.0926722735
1.5494838953 -5.1350946426 -0.0929340646
1.5372796059 -5.1596307755 -0.0932831094
1.5249220133 -5.1841440201 -0.0936321542
1.5110138655 -5.2038340569 -0.0938939452
1.4983688593 -5.2282938957 -0.0942429975
1.4855706692 -5.2527294159 -0.0945920423
1.4712722301 -5.2723245621 -0.0948538259
1.4568543434 -5.2918839455 -0.0951156095
1.4410035610 -5.3065834045 -0.0952901393
1.4289621115 -5.3357195854 -0.0957264453
1.4154529572 -5.3600044250 -0.0960754976
1.4017921686 -5.3842597008 -0.0964245498
1.3892259598 -5.4133253098 -0.0968608484
1.3740136623 -5.4326777458 -0.0971226394
1.3574692011 -5.4471402168 -0.0972971618
1.3396431208 -5.4566993713 -0.0973844230
1.3241271973 -5.4759163857 -0.0976462141
1.3131437302 -5.5145397186 -0.0982570425
1.2996158600 -5.5434207916 -0.0986933559
1.2859022617 -5.5722742081 -0.0991296619
1.2708904743 -5.5962252617 -0.0994787142
1.2524433136 -5.6055049896 -0.0995659754
1.2371795177 -5.6293697357 -0.0999150276
1.2207041979 -5.6483101845 -0.1001768112
1.3967053890 -6.8016095161 -0.1205088645
1.3793070316 -6.8255615234 -0.1208579093
1.3584035635 -6.8450436592 -0.1211197004
1.3393013477 -6.8742742538 -0.1215560064
1.3200117350 -6.9034552574 -0.1219923198
1.3005336523 -6.9325852394 -0.1224286258
1.2808692455 -6.9616627693 -0.1228649393
1.2610166073 -6.9906868935 -0.1233012527
1.2234953642 -6.9212126732 -0.1219923198
1.1941871643 -6.8958897591 -0.1214687526
1.1748044491 -7.0766472816 -0.1245229170
1.1484839916 -7.0708374977 -0.1243483946
1.1103981733 -6.9908790588 -0.1228649393
1.0890723467 -7.0144701004 -0.1232139915
1.0698553324 -7.0528235435 -0.1238248199
1.0481755733 -7.0762939453 -0.1241738647
1.0270632505 -7.1046462059 -0.1246101782
1.0050647259 -7.1279869080 -0.1249592304
0.9794930816 -7.1264991760 -0.1248719618
0.9359278679 -6.9911489487 -0.1224286258
0.8896284103 -7.0173487663 -0.1227776781
0.8226714730 -6.6780867577 -0.1167566031
0.8053358197 -6.7305507660 -0.1176292151
0.8039016724 -6.9220066071 -0.1209451705
0.7819881439 -6.9446396828 -0.1212942228
0.7610174417 -6.9771432877 -0.1218177974
0.7387729287 -6.9996423721 -0.1221668422
0.7168918848 -7.0270428658 -0.1226031482
0.6948275566 -7.0543766022 -0.1230394617
0.6725820899 -7.0816416740 -0.1234757751
0.6506130099 -7.1138153076 -0.1239993498
0.6284282804 -7.1459207535 -0.1245229170
0.6060274243 -7.1779580116 -0.1250464916
0.5834095478 -7.2099251747 -0.1255700588
0.5605767965 -7.2418222427 -0.1260936409
0.5375274420 -7.2736468315 -0.1266172081
0.5139089227 -7.3004121780 -0.1270535141
0.4904474616 -7.3320889473 -0.1275770962
0.4664501548 -7.3587012291 -0.1280134022
0.4419713616 -7.3802447319 -0.1283624470
0.4182023406 -7.4166803360 -0.1289732754
0.4044626057 -8.1783494949 -0.1422371119
0.3768432736 -8.1996879578 -0.1425861567
0.2848772407 -6.7325420380 -0.1169311181
0.3180056214 -8.1621561050 -0.1418880671
0.2878876925 -8.1182527542 -0.1411027014
0.2158282697 -6.7801256180 -0.1177164763
0.1917222887 -6.7658462524 -0.1174546927
0.1450373083 -6.7920093536 -0.1178909987
0.1177807525 -6.6025371552 -0.1145750508
0.0945814103 -6.5929102898 -0.1144005209
0.0713329241 -6.5732045174 -0.1140514761
0.0482650474 -6.5584163666 -0.1137896925
0.0252768528 -6.5385484695 -0.1134406403
0.0024288232 -6.5185999870 -0.1130915955
-0.0202682912 -6.4935722351 -0.1126552820
-0.0427915156 -6.4684662819 -0.1122189686
-0.0651850998 -6.4482812881 -0.1118699238
-0.0872480646 -6.4130229950 -0.1112590879
-0.1093893871 -6.3976831436 -0.1109972969
-0.1315232962 -6.3872661591 -0.1108227819
-0.1548630446 -6.4317493439 -0.1116081402
-0.1777132004 -6.4461617470 -0.1118699238
-0.1071359217 -2.4969189167 -0.0429329202
-0.1138648987 -2.4515805244 -0.0421475619
-0.1231363416 -2.4661486149 -0.0424093455
-0.3549014628 -6.3887681961 -0.1109972969
-0.3751680553 -6.3525552750 -0.1103864685
-0.3970321715 -6.3462171555 -0.1102991998
-0.4204835892 -6.3647470474 -0.1106482521
-0.2154743969 -2.6554629803 -0.0458125658
-0.2243815362 -2.6446909904 -0.0456380434
-0.2370487452 -2.6837375164 -0.0463361368
-0.2455211282 -2.6729352474 -0.0461616144
-0.2618159652 -2.7467262745 -0.0474705473
-0.2556547523 -2.5011820793 -0.0431947038
-0.2556333542 -2.4157390594 -0.0417112485
-0.2650187016 -2.4197568893 -0.0417985134
-0.2697444856 -2.3890509605 -0.0412749425
-0.2775155902 -2.3831276894 -0.0411876775
-0.2852483094 -2.3771796227 -0.0411004163
-0.2929432094 -2.3712065220 -0.0410131551
-0.3005995750 -2.3652088642 -0.0409258939
-0.3075815737 -2.3542277813 -0.0407513715
-0.3151442409 -2.3481833935 -0.0406641066
-0.3226682246 -2.3421151638 -0.0405768454
-0.3308419585 -2.3409745693 -0.0405768454
-0.3383060396 -2.3348560333 -0.0404895805
-0.3464540243 -2.3336608410 -0.0404895805
-0.3542643189 -2.3274314404 -0.0404023230
-0.3612234592 -2.3213021755 -0.0403150581
-0.3685500026 -2.3150882721 -0.0402277969
-0.3758372664 -2.3088514805 -0.0401405357
-0.3830854595 -2.3025920391 -0.0400532708
-0.3911208808 -2.3012406826 -0.0400532708
-0.3983080387 -2.2949340343 -0.0399660096
-0.4054562151 -2.2886049747 -0.0398787446
-0.4134423435 -2.2871756554 -0.0398787446
-0.4205287099 -2.2808001041 -0.0397914872
-0.4275759161 -2.2744028568 -0.0397042222
-0.4355123341 -2.2728965282 -0.0397042222
-0.4424975812 -2.2664535046 -0.0396169610
-0.4494428039 -2.2599895000 -0.0395296998
-0.4573287964 -2.2584068775 -0.0395296998
-0.4652094841 -2.2567968369 -0.0395296998
-0.4720696211 -2.2502641678 -0.0394424386
-0.4799218178 -2.2486026287 -0.0394424386
-0.4867190421 -2.2420256138 -0.0393551737
-0.4945420921 -2.2403128147 -0.0393551737
-0.5012765527 -2.2336926460 -0.0392679162
-0.5079704523 -2.2270522118 -0.0391806513
-0.5146245360 -2.2203927040 -0.0390933901
-0.5212379098 -2.2137138844 -0.0390061252
-0.5278110504 -2.2070162296 -0.0389188677
-0.5343440175 -2.2002992630 -0.0388316028
-0.5424048901 -2.1983258724 -0.0388316028
-0.5484901071 -2.1916627884 -0.0387443416
-0.5561370254 -2.1897346973 -0.0387443416
-0.5625414252 -2.1829359531 -0.0386570804
-0.5701580048 -2.1809589863 -0.0386570804
-0.5676118731 -2.1402723789 -0.0379589833
-0.5647890568 -2.0996308327 -0.0372608863
-0.5564765930 -2.0397298336 -0.0362137444
-0.5649130940 -2.0425965786 -0.0363010056
-0.5666924715 -2.0213434696 -0.0359519571
-0.5737447143 -2.0193531513 -0.0359519571
-0.5794198513 -2.0125303268 -0.0358646959
-0.5864412785 -2.0104956627 -0.0358646959
-0.5920515060 -2.0036380291 -0.0357774310
-0.5976213217 -1.9967659712 -0.0356901698
-0.6031502485 -1.9898797274 -0.0356029086
-0.6144551039 -2.0021114349 -0.0358646959
-0.6346771717 -2.0429561138 -0.0366500504
-0.6522168517 -2.0741381645 -0.0372608863
-0.6729903221 -2.1147572994 -0.0380462483
-0.6773263812 -2.1028704643 -0.0378717184
