0.4736852348 -7.3468351364 0.4286223352
0.4489584863 -7.3633894920 0.4294988811
0.4241229296 -7.3798608780 0.4303753972
0.3991768658 -7.3962483406 0.4312519133
0.3576178849 -8.2128372192 0.4788766205
0.3291509151 -8.2190227509 0.4791688025
0.3002730012 -8.2151336670 0.4788766205
0.2709230483 -8.1961774826 0.4777079523
0.2415583581 -8.1721267700 0.4762470424
0.2124971002 -8.1529617310 0.4750783443
0.1835736632 -8.1336936951 0.4739096165
0.1547862738 -8.1143236160 0.4727409482
0.1261374056 -8.0948505402 0.4715722203
0.0976264030 -8.0752773285 0.4704035521
0.0720650256 -8.0555791855 0.4692347944
0.0438227654 -8.0358161926 0.4680661261
0.0157204214 -8.0159540176 0.4668973982
-0.0122437943 -7.9959945679 0.4657287002
-0.0400674082 -7.9759378433 0.4645600021
-0.0677511469 -7.9557838440 0.4633913040
-0.0952957347 -7.9355344772 0.4622225761
-0.1226987317 -7.9151897430 0.4610538781
-0.1499619186 -7.8947510719 0.4598851800
-0.1770828515 -7.8742184639 0.4587164819
-0.2040622830 -7.8535928726 0.4575477839
-0.2310446501 -7.8378643990 0.4566712677
-0.2608125210 -7.8269419670 0.4560868740
-0.2897542715 -7.8708777428 0.4587164819
-0.1119434908 -2.4729254246 0.1425819397
-0.1205747947 -2.4725196362 0.1425819397
-0.1284551919 -2.4571280479 0.1417054087
-0.1327212751 -2.3919153214 0.1379071176
-0.4699143171 -7.7071614265 0.4496590197
-0.4955440462 -7.6855487823 0.4484902918
-0.5273954272 -7.7584757805 0.4528729618
-0.5537698865 -7.7466292381 0.4522885978
-0.5789573193 -7.7197604179 0.4508277178
-0.1880228370 -2.3481473923 0.1355697066
-0.2002649605 -2.3972268105 0.1384914666
-0.2086315006 -2.3965132236 0.1384914666
-0.2169958055 -2.3957703114 0.1384914666
-0.2249004394 -2.3900279999 0.1381992996
-0.2332416922 -2.3892283440 0.1381992996
-0.2332263589 -2.3039569855 0.1332322955
-0.2448283881 -2.3378872871 0.1352775395
-0.2540400028 -2.3469457626 0.1358618885
-0.3388260901 -2.9502179623 0.1715073735
-0.3479663730 -2.9391014576 0.1709230244
-0.3612001538 -2.9626481533 0.1723839045
-0.3703144789 -2.9514615536 0.1717995405
-0.3774650395 -2.9253933430 0.1703386605
-0.3844380975 -2.8993113041 0.1688777804
-0.3945564926 -2.8979516029 0.1688777804
-0.4046696723 -2.8965568542 0.1688777804
-0.4126813412 -2.8802998066 0.1680012643
-0.4122417867 -2.7391049862 0.1598203182
-0.3947753310 -2.5600006580 0.1493019760
-0.4037088454 -2.5586071014 0.1493019760
-0.3882985413 -2.4043734074 0.1402445287
-0.4007005692 -2.4276361465 0.1417054087
-0.3895033002 -2.3080537319 0.1346931905
-0.3908639848 -2.2673130035 0.1323557645
-0.3996298015 -2.2708528042 0.1326479465
-0.4058122039 -2.2596144676 0.1320635974
-0.4128089249 -2.2532720566 0.1317714155
-0.4197663665 -2.2469089031 0.1314792484
-0.4276071489 -2.2454299927 0.1314792484
-0.4345028400 -2.2390213013 0.1311870664
-0.4413593411 -2.2325921059 0.1308948994
-0.4481759369 -2.2261424065 0.1306027174
-0.4559437633 -2.2245643139 0.1306027174
-0.4626984298 -2.2180707455 0.1303105503
-0.4704380035 -2.2164421082 0.1303105503
-0.4771300852 -2.2099049091 0.1300183535
-0.4848410785 -2.2082259655 0.1300183535
-0.4914700687 -2.2016460896 0.1297261864
-0.4980593026 -2.1950466633 0.1294340044
-0.5046082139 -2.1884284019 0.1291418374
-0.5122443438 -2.1866536140 0.1291418374
-0.5187299252 -2.1799936295 0.1288496554
-0.5263362527 -2.1781697273 0.1288496554
-0.5327585340 -2.1714687347 0.1285574883
-0.5391401052 -2.1647493839 0.1282653064
-0.5466933846 -2.1628541946 0.1282653064
-0.5530110598 -2.1560950279 0.1279731393
-0.5605337620 -2.1541514397 0.1279731393
-0.5667874813 -2.1473524570 0.1276809573
-0.5742795467 -2.1453609467 0.1276809573
-0.5804688931 -2.1385231018 0.1273887902
-0.5853042006 -2.1268522739 0.1268044263
-0.5701196194 -2.0430080891 0.1218374372
-0.5745547414 -2.0313925743 0.1212530881
-0.5802786946 -2.0245730877 0.1209609061
-0.5873424411 -2.0225350857 0.1209609061
-0.5930019617 -2.0156805515 0.1206687316
-0.6000342965 -2.0135984421 0.1206687316
-0.6056293845 -2.0067093372 0.1203765497
-0.6126303077 -2.0045831203 0.1203765497
-0.6181605458 -1.9976603985 0.1200843826
-0.6251298189 -1.9954904318 0.1200843826
-0.6305946112 -1.9885343313 0.1197922006
-0.6405590177 -1.9958339930 0.1203765497
-0.6490518451 -1.9983371496 0.1206687316
-0.6653030515 -2.0245342255 0.1224217862
-0.6801815033 -2.0459012985 0.1238826588
-0.6952171922 -2.0671892166 0.1253435463
-0.7024289966 -2.0647497177 0.1253435463
-0.7096319199 -2.0622851849 0.1253435463
-0.7151972651 -2.0550773144 0.1250513643
-0.7207207680 -2.0478560925 0.1247591972
-0.7262024879 -2.0406212807 0.1244670153
-0.7316428423 -2.0333731174 0.1241748407
-0.7387360930 -2.0308067799 0.1241748407
-0.7441092730 -2.0235266685 0.1238826588
-0.7511680722 -2.0209169388 0.1238826588
-0.7564737797 -2.0136058331 0.1235904917
-0.7634981275 -2.0109529495 0.1235904917
-0.7705129385 -2.0082757473 0.1235904917
-0.7775185704 -2.0055737495 0.1235904917
-0.7827053666 -1.9981952906 0.1232983097
-0.7896754742 -1.9954510927 0.1232983097
-0.7966362238 -1.9926823378 0.1232983097
-0.8017293811 -1.9852566719 0.1230061427
-0.8086544871 -1.9824459553 0.1230061427
-0.8155695200 -1.9796112776 0.1230061427
-0.8224745393 -1.9767524004 0.1230061427
-0.8274475932 -1.9692627192 0.1227139607
-0.8343164325 -1.9663623571 0.1227139607
-0.8411754370 -1.9634380341 0.1227139607
-0.8460536003 -1.9559038877 0.1224217862
-0.8528757095 -1.9529386759 0.1224217862
-0.8576853275 -1.9453773499 0.1221296042
-0.8624523878 -1.9378064871 0.1218374372
-0.8671773076 -1.9302258492 0.1215452552
-0.8739096522 -1.9271872044 0.1215452552
-0.8785654306 -1.9195811749 0.1212530881
-0.8852608204 -1.9165027142 0.1212530881
-0.8919451833 -1.9134008884 0.1212530881
-0.8986189365 -1.9102756977 0.1212530881
-0.9052814245 -1.9071273804 0.1212530881
-0.9119329453 -1.9039558172 0.1212530881
-0.9170746207 -1.8959412575 0.1209609061
-0.9230263829 -1.8930507898 0.1209609061
-0.9296289086 -1.8898172379 0.1209609061
-0.9362198114 -1.8865607977 0.1209609061
-0.9405761361 -1.8788124323 0.1206687316
-0.9471288323 -1.8755177259 0.1206687316
-0.9536697268 -1.8722002506 0.1206687316
-0.9601992369 -1.8688597679 0.1206687316
-0.9644313455 -1.8610591888 0.1203765497
-0.9755235314 -1.8665403128 0.1209609061
-0.9820331931 -1.8631236553 0.1209609061
-0.9792034030 -1.8420312405 0.1197922006
-2.3798594475 -4.4552593231 0.2933447957
-2.3883090019 -4.4337344170 0.2924682796
-2.3990149498 -4.4165930748 0.2918839157
-2.4096310139 -4.3994312286 0.2912995517
-2.4249730110 -4.3909935951 0.2912995517
-2.4378623962 -4.3781385422 0.2910073996
-2.4531297684 -4.3696022034 0.2910073996
-2.4659132957 -4.3566660881 0.2907152176
-2.4811062813 -4.3480315208 0.2907152176
-2.4937839508 -4.3350152969 0.2904230356
-2.5089011192 -4.3262839317 0.2904230356
-2.5214724541 -4.3131880760 0.2901308537
-2.5365126133 -4.3043603897 0.2901308537
-2.5515224934 -4.2954797745 0.2901308537
-2.5639414787 -4.2822623253 0.2898387015
-2.5788741112 -4.2732863426 0.2898387015
-2.5937747955 -4.2642583847 0.2898387015
-2.6060392857 -4.2509202957 0.2895465195
-2.6208622456 -4.2417974472 0.2895465195
-2.6382868290 -4.2368631363 0.2898387015
-2.8172836304 -4.4899301529 0.3079536259
-3.0628185272 -4.8071203232 0.3313277066
-3.5185258389 -5.4814419746 0.3789523840
-3.5376379490 -5.4691267014 0.3789523840
-3.5586118698 -5.4555025101 0.3789523840
-3.5776331425 -5.4430480003 0.3789523840
-3.5966114998 -5.4305262566 0.3789523840
-3.6155455112 -5.4179387093 0.3789523840
-3.6344358921 -5.4052848816 0.3789523840
-3.6532814503 -5.3925652504 0.3789523840
-3.6692721844 -5.3756556511 0.3786602318
-3.6880147457 -5.3628144264 0.3786602318
-3.7067115307 -5.3499088287 0.3786602318
-3.7253642082 -5.3369369507 0.3786602318
-3.7439706326 -5.3239006996 0.3786602318
-3.7625312805 -5.3107995987 0.3786602318
-3.7810471058 -5.2976331711 0.3786602318
-3.8286216259 -5.3249526024 0.3815819621
-3.8735089302 -5.3479590416 0.3842115700
-3.8921530247 -5.3344054222 0.3842115700
-3.9137024879 -5.3248114586 0.3845037520
-3.9381997585 -5.3191452026 0.3850880861
-3.9597239494 -5.3093695641 0.3853802681
-3.9782333374 -5.2955150604 0.3853802681
-3.9997024536 -5.2855792046 0.3856724501
-4.0181279182 -5.2715854645 0.3856724501
-4.0365052223 -5.2575273514 0.3856724501
-4.0548324585 -5.2434053421 0.3856724501
-4.0761752129 -5.2331595421 0.3859646320
-4.0944180489 -5.2188987732 0.3859646320
-4.1157011986 -5.2084932327 0.3862567842
-4.1338572502 -5.1940956116 0.3862567842
-4.1550812721 -5.1835312843 0.3865489662
-4.1731495857 -5.1689958572 0.3865489662
-4.1911683083 -5.1543965340 0.3865489662
-4.2059755325 -5.1358714104 0.3862567842
-4.2302231789 -5.1288652420 0.3868411481
-4.2512865067 -5.1179099083 0.3871333301
-4.2755246162 -5.1107010841 0.3877176642
-4.2965521812 -5.0995645523 0.3880098462
-4.3111004829 -5.0807271004 0.3877176642
-4.3288087845 -5.0656480789 0.3877176642
-4.3432116508 -5.0467209816 0.3874254823
-4.3673334122 -5.0390791893 0.3880098462
-4.3848977089 -5.0238027573 0.3880098462
-4.4056997299 -5.0122179985 0.3883020282
-4.4264736176 -5.0005483627 0.3885942101
-4.4439015388 -4.9850668907 0.3885942101
-4.4630103111 -4.9679670334 0.3885942101
-4.4719071388 -4.9465103149 0.3880098462
-4.4857888222 -4.9271769524 0.3877176642
-4.4995899200 -4.9078068733 0.3874254823
-4.5184016228 -4.8904933929 0.3874254823
-4.5422391891 -4.8820061684 0.3880098462
-4.5626626015 -4.8697662354 0.3883020282
-4.5830554962 -4.8574433327 0.3885942101
-4.5965495110 -4.8377938271 0.3883020282
-4.6065120697 -4.8145012856 0.3877176642
-4.6578941345 -4.8343644142 0.3906394541
-4.6921057701 -4.8360018730 0.3921003342
-4.7159285545 -4.8267397881 0.3926846683
-4.7362475395 -4.8138084412 0.3929768503
-4.7565321922 -4.8007955551 0.3932690322
-4.7732605934 -4.7841629982 0.3932690322
-4.7934660912 -4.7709960938 0.3935611844
-4.8100905418 -4.7542347908 0.3935611844
-4.8266572952 -4.7374148369 0.3935611844
-4.8503079414 -4.7275114059 0.3941455483
-4.8524446487 -4.6966552734 0.3929768503
-4.8760013580 -4.6866121292 0.3935611844
-4.8815064430 -4.6592159271 0.3926846683
-16.9091491699 -16.0445308685 1.3621249199
-17.0594844818 -16.0744285583 1.3697215319
-16.8605384827 -15.6660766602 1.3448865414
-9.3162345886 -8.4137201309 0.7324854732
-9.5349731445 -8.4912853241 0.7450490594
-9.6505260468 -8.5340337753 0.7517691255
-9.7214984894 -8.5365409851 0.7549830675
-5.1329674721 -4.4723620415 0.3961907923
-5.1410031319 -4.4478802681 0.3956064582
-5.1602807045 -4.4331636429 0.3958986104
-5.1643400192 -4.4053955078 0.3950220644
-5.1834926605 -4.3905715942 0.3953142464
-5.1835165024 -4.3595881462 0.3941455483
-5.2178463936 -4.3574800491 0.3956064582
-5.2330245972 -4.3392400742 0.3956064582
-5.2866501808 -4.3527021408 0.3985281885
-5.3288459778 -4.3563575745 0.4005734324
-5.3556389809 -4.3471760750 0.4014499485
-5.3746643066 -4.3315901756 0.4017421305
-5.3975415230 -4.3190460205 0.4023264945
-5.4164915085 -4.3032855988 0.4026186764
-5.4393124580 -4.2905411720 0.4032030106
-5.4596757889 -4.2727031708 0.4034951925
-5.4824352264 -4.2597508430 0.4040795565
-5.5051703453 -4.2466912270 0.4046638906
-5.5199604034 -4.2274489403 0.4046638906
-5.5545396805 -4.2232742310 0.4061247706
-5.5692477226 -4.2038598061 0.4061247706
-5.6158246994 -4.2083644867 0.4084621668
-5.9306712151 -4.4124102592 0.4303753972
-5.8898558617 -4.3501248360 0.4262849092
-5.8808665276 -4.3118119240 0.4245318770
-5.8434448242 -4.2530345917 0.4207335711
-5.8339924812 -4.2150549889 0.4189805388
-5.8486700058 -4.1946654320 0.4189805388
-5.7657370567 -4.1046757698 0.4119682908
-5.6863236427 -4.0181999207 0.4052482545
-5.6962308884 -3.9954571724 0.4049560726
-5.7101426125 -3.9755496979 0.4049560726
-5.6870470047 -3.9300262928 0.4023264945
-5.7130727768 -3.9186303616 0.4032030106
-5.7349653244 -3.9042873383 0.4037873745
-5.7568264008 -3.8898406029 0.4043717384
-5.7786560059 -3.8752884865 0.4049560726
-5.7963008881 -3.8578627110 0.4052482545
-5.8180570602 -3.8431150913 0.4058325887
-5.8356099129 -3.8255212307 0.4061247706
-5.8586211205 -3.8085348606 0.4067091346
-5.8802647591 -3.7934780121 0.4072934687
-5.8976721764 -3.7756235600 0.4075856507
-5.9192376137 -3.7603735924 0.4081699848
-5.9394617081 -3.7470912933 0.4087543488
-5.9609627724 -3.7316396236 0.4093387127
-5.9866666794 -3.7187204361 0.4102152586
-6.0081048012 -3.7030448914 0.4107995927
-6.0295071602 -3.6872651577 0.4113839567
-6.0564198494 -3.6718590260 0.4122604728
-6.0777506828 -3.6558482647 0.4128448367
-6.0990443230 -3.6397314072 0.4134291708
-6.1202983856 -3.6235122681 0.4140135348
-6.1458158493 -3.6097199917 0.4148900509
-6.1626892090 -3.5907614231 0.4151822329
-6.1838250160 -3.5742299557 0.4157665968
-5.4711461067 -3.0604624748 0.3646357656
-5.4774327278 -3.0389211178 0.3643435836
-5.4486680031 -2.9980916977 0.3617140353
-5.4853768349 -2.9934225082 0.3634670675
-5.4650774002 -2.9576013088 0.3614218235
-5.4445953369 -2.9219582081 0.3593766093
-5.4239311218 -2.8864943981 0.3573313653
-5.3986744881 -2.8488757610 0.3549939692
-5.3776416779 -2.8137884140 0.3529487252
-5.3520011902 -2.7765803337 0.3506113291
-5.3261671066 -2.7395856380 0.3482739329
-5.3045845032 -2.7050766945 0.3462286592
-5.2650175095 -2.6617269516 0.3430147469
-5.2662763596 -2.6370134354 0.3424303830
-5.2441663742 -2.6030519009 0.3403851390
-5.2129302025 -2.5648617744 0.3377555609
-5.2353048325 -2.5532262325 0.3386321068
-5.2576613426 -2.5414652824 0.3395086229
-5.2665009499 -2.5230960846 0.3395086229
-5.4373354912 -2.5354385376 0.3488582671
-5.4099183083 -2.4996623993 0.3465208411
-5.3913922310 -2.4682712555 0.3447678089
-5.4408688545 -2.4680304527 0.3473973572
-5.4676547050 -2.4572238922 0.3485660851
-5.4898734093 -2.4442262650 0.3494426310
-5.5120673180 -2.4311029911 0.3503191471
-5.5296645164 -2.4158508778 0.3509034812
-5.5380640030 -2.3965344429 0.3509034812
-5.5601539612 -2.3830997944 0.3517800272
-5.7192473412 -2.4043121338 0.3608374596
-5.7045736313 -2.3747212887 0.3593766093
-5.6666960716 -2.3357331753 0.3564548492
-5.6701946259 -2.3140487671 0.3561626673
-4.5882196426 -1.8341305256 0.2869169116
-4.5899548531 -1.8162609339 0.2866247296
-4.5962667465 -1.8002282381 0.2866247296
-4.6025228500 -1.7841734886 0.2866247296
-4.6093397141 -1.7664878368 0.2866247296
-4.6154775620 -1.7503877878 0.2866247296
-4.6215591431 -1.7342662811 0.2866247296
-4.6229081154 -1.7163803577 0.2863325775
-4.6382379532 -1.7036850452 0.2869169116
-4.6441564560 -1.6874845028 0.2869169116
-4.6406278610 -1.6678768396 0.2863325775
-5.2405571938 -1.8429920673 0.3228546083
-5.3553562164 -1.8624998331 0.3295746446
-5.4609165192 -1.8779731989 0.3357103467
-5.5619249344 -1.8911209106 0.3415538669
-5.6678204536 -1.9051804543 0.3476895392
-5.7738809586 -1.9185218811 0.3538252413
-5.8801021576 -1.9311470985 0.3599609435
-5.9627485275 -1.9353290796 0.3646357656
-6.0454950333 -1.9389573336 0.3693105876
-6.1283383369 -1.9420312643 0.3739853799
-6.2017521858 -1.9415582418 0.3780758679
-6.2752366066 -1.9405977726 0.3821663558
-6.3440155983 -1.9376858473 0.3859646320
-6.4080724716 -1.9328719378 0.3894707561
-6.4721727371 -1.9276342392 0.3929768503
-6.5411014557 -1.9233824015 0.3967751563
-6.6052856445 -1.9172792435 0.4002812505
-6.6647090912 -1.9093729258 0.4034951925
-6.7289590836 -1.9024364948 0.4070012867
-6.7884345055 -1.8937299252 0.4102152586
-6.8431191444 -1.8833011389 0.4131369889
-6.9032826424 -1.8714183569 0.4163509607
-6.9573349953 -1.8626649380 0.4192726910
-7.0168714523 -1.8524217606 0.4224866331
-7.0722327232 -1.8380553722 0.4254083931
-7.1269502640 -1.8257796764 0.4283301532
-7.1768283844 -1.8119188547 0.4309597611
-7.2315392494 -1.7989382744 0.4338814914
-7.2813992500 -1.7844082117 0.4365110993
-7.3360967636 -1.7707263231 0.4394328594
-7.3859314919 -1.7555266619 0.4420624375
-7.4357481003 -1.7400004864 0.4446920156
-7.4806833267 -1.7230221033 0.4470294118
-7.5304574966 -1.7068598270 0.4496590197
-7.5802092552 -1.6903710365 0.4522885978
-7.6348118782 -1.6746282578 0.4552103579
-7.6845178604 -1.6574690342 0.4578399658
-7.7341961861 -1.6399809122 0.4604695141
-7.7789602280 -1.6211466789 0.4628069401
-7.8236865997 -1.6020197868 0.4651443660
-7.8683733940 -1.5826003551 0.4674817622
-7.9130191803 -1.5628882647 0.4698191881
-7.9527239799 -1.5419284105 0.4718644023
-7.9929080009 -1.5179218054 0.4739096165
-8.0325031281 -1.4964337349 0.4759548306
-8.0671358109 -1.4737876654 0.4777079523
-8.1066198349 -1.4518009424 0.4797531664
-8.1411323547 -1.4286904335 0.4815061986
-8.1755828857 -1.4053544998 0.4832592607
-8.2148904800 -1.3826291561 0.4853044748
-8.2492141724 -1.3588322401 0.4870575666
-8.2883987427 -1.3356095552 0.4891027808
-8.3275213242 -1.3121297359 0.4911480248
-8.3715133667 -1.2891535759 0.4934854209
-8.4105110168 -1.2651429176 0.4955306351
-8.4543800354 -1.2416038513 0.4978680611
-8.4932460785 -1.2170628309 0.4999132752
-8.5369873047 -1.1929595470 0.5022507310
-8.5757169724 -1.1678867340 0.5042959452
-8.6143751144 -1.1425602436 0.5063411593
-8.6529607773 -1.1169780493 0.5083864331
-8.6865205765 -1.0905156136 0.5101394653
-8.7249546051 -1.0644398928 0.5121846795
-8.7583560944 -1.0375167131 0.5139377713
-8.7916746140 -1.0103753805 0.5156908035
-8.8249111176 -0.9830142260 0.5174438357
-8.8580627441 -0.9554333091 0.5191969275
-8.8911294937 -0.9276328087 0.5209500194
-8.9241085052 -0.8996107578 0.5227030516
-8.9570007324 -0.8713720441 0.5244560838
-8.9898052216 -0.8429147005 0.5262091756
-9.0175466537 -0.8137873411 0.5276700258
-9.0501670837 -0.7849107385 0.5294230580
-9.0779857635 -0.7522301078 0.5308839679
-9.1054344177 -0.7225263715 0.5323448181
-9.1327857971 -0.6926378608 0.5338057280
-9.1600389481 -0.6625695229 0.5352666378
-9.1871929169 -0.6323193312 0.5367274880
-9.2142477036 -0.6018877029 0.5381883979
-9.2412014008 -0.5712748170 0.5396492481
-9.2680540085 -0.5404787064 0.5411101580
-9.2948026657 -0.5095044374 0.5425710082
-9.3214483261 -0.4783499837 0.5440318584
-9.3479900360 -0.4470157921 0.5454927683
-9.3744249344 -0.4155020416 0.5469536185
-9.3957672119 -0.3836003244 0.5481224060
-9.4219884872 -0.3517461419 0.5495832562
-9.4481010437 -0.3197135329 0.5510441065
-9.4741048813 -0.2875029445 0.5525050163
-9.4999980927 -0.2551146746 0.5539658666
-9.5257816315 -0.2225466371 0.5554267764
-9.5514526367 -0.1898041964 0.5568876266
-9.5770645142 -0.1535415202 0.5583484769
-9.6024551392 -0.1237901896 0.5598093867
-9.6277837753 -0.0905194059 0.5612702966
-9.6530179977 -0.0537030473 0.5627312064
-9.6781034470 -0.0200706869 0.5641920567
-9.6980810165 0.0137292305 0.5653607845
-9.7229309082 0.0476901568 0.5668216348
-9.7426700592 0.0817855150 0.5679903030
-9.7622900009 0.1160192639 0.5691590309
-9.7817897797 0.1503935754 0.5703277588
-9.8061571121 0.1849942803 0.5717886090
-9.8254127502 0.2196580619 0.5729572773
-9.8445463181 0.2544585466 0.5741260052
-9.8635549545 0.2893952131 0.5752947330
-9.8824405670 0.3244703412 0.5764634609
-9.9012012482 0.3596782386 0.5776321888
-9.9148473740 0.3948250115 0.5785086751
-9.9333572388 0.4302848876 0.5796774030
-9.9467525482 0.4656479061 0.5805538893
-9.9650077820 0.5013605952 0.5817226171
-9.9781494141 0.5369380713 0.5825991035
-9.9961481094 0.5728964806 0.5837678313
-10.0140180588 0.6089870334 0.5849365592
-10.0267744064 0.6448915005 0.5858130455
-10.0443840027 0.6812303066 0.5869817734
-10.0566301346 0.7208558321 0.5878583193
-10.0689849854 0.7570700645 0.5887348652
-10.0812101364 0.7933793068 0.5896114111
-10.0933036804 0.8297830820 0.5904878974
-10.1052665710 0.8662809730 0.5913644433
-10.1170969009 0.9028751254 0.5922409892
-10.1337652206 0.9400181770 0.5934096575
-10.1453285217 0.9768127799 0.5942862034
-10.1567573547 1.0136995316 0.5951626897
-10.1730184555 1.0511884689 0.5963314176
-10.1841773987 1.0882780552 0.5972079039
-10.1952009201 1.1254557371 0.5980844498
-10.2060899734 1.1627236605 0.5989609957
-10.2168416977 1.2000811100 0.5998374820
-10.2225017548 1.2369308472 0.6004218459
-10.2329826355 1.2744518518 0.6012983918
-10.2433252335 1.3120580912 0.6021749377
-10.2535305023 1.3497523069 0.6030514836
-10.2635974884 1.3875336647 0.6039280295
-10.2685794830 1.4247181416 0.6045123339
-10.2783699036 1.4626578093 0.6053888798
-10.2880201340 1.5006805658 0.6062654257
-10.2925939560 1.5380531549 0.6068497896
-10.3014144897 1.5798250437 0.6077262759
-10.3057003021 1.6173162460 0.6083106399
-10.3098497391 1.6548566818 0.6088950038
-10.3138618469 1.6924456358 0.6094793081
-10.3226604462 1.7309085131 0.6103558540
-10.3263959885 1.7686105967 0.6109402180
-10.3299951553 1.8063597679 0.6115245819
-10.3334541321 1.8441554308 0.6121088862
-10.3318653107 1.8811057806 0.6124010682
-10.3350524902 1.9189790487 0.6129854321
-10.3381004333 1.9568946362 0.6135697961
-10.3361082077 1.9939119816 0.6138619781
-10.3388814926 2.0318992138 0.6144462824
-10.3366212845 2.0689527988 0.6147385240
-10.3293352127 2.1050238609 0.6147385240
-10.2779331207 2.1319644451 0.6121088862
-11.8187723160 2.4938325882 0.7047287226
-11.7758302689 2.5277538300 0.7026835084
-11.7523040771 2.5656557083 0.7018069625
-11.7189092636 2.6012682915 0.7003461123
-11.6951494217 2.6388688087 0.6994695663
-11.6664047241 2.6752219200 0.6983008981
-11.6424093246 2.7125368118 0.6974243522
-11.6134395599 2.7485697269 0.6962556839
-11.5892124176 2.7856006622 0.6953790784
-11.5600204468 2.8213119507 0.6942104101
-11.5355653763 2.8580513000 0.6933338642
-11.5099830627 2.8986730576 0.6924573183
-11.4852857590 2.9351310730 0.6915808320
-11.4556407928 2.9702012539 0.6904121041
-11.4307193756 3.0063710213 0.6895356178
-11.4008617401 3.0411152840 0.6883668900
-11.3757200241 3.0769891739 0.6874903440
-11.3504676819 3.1127247810 0.6866138577
-11.3251037598 3.1483213902 0.6857373118
-11.2996292114 3.1837818623 0.6848607659
-11.2788476944 3.2204685211 0.6842764616
-11.2531509399 3.2556636333 0.6833999157
-11.2273454666 3.2907187939 0.6825233698
-11.2014341354 3.3256335258 0.6816468239
-11.1754140854 3.3604102135 0.6807702780
-11.1492891312 3.3950431347 0.6798937321
-11.1230592728 3.4295346737 0.6790172458
-11.0967245102 3.4638843536 0.6781406999
-11.0702857971 3.4980921745 0.6772642136
-11.0472631454 3.5375332832 0.6766798496
-11.0206003189 3.5714631081 0.6758033037
-10.9985780716 3.6068062782 0.6752189398
-10.9717073441 3.6404669285 0.6743424535
-10.9494676590 3.6755700111 0.6737580895
-10.9223890305 3.7089591026 0.6728815436
-10.8952121735 3.7422046661 0.6720050573
-10.8726501465 3.7769439220 0.6714206934
-10.8452701569 3.8099162579 0.6705441475
-10.8224973679 3.8444123268 0.6699598432
-10.7996149063 3.8787958622 0.6693754792
-10.7766246796 3.9130663872 0.6687910557
-10.7535257339 3.9472265244 0.6682066917
-10.7303218842 3.9812705517 0.6676223874
-10.7070102692 4.0152006149 0.6670380235
-10.6835927963 4.0490164757 0.6664536595
-10.6600694656 4.0827174187 0.6658692956
-10.6317853928 4.1145076752 0.6649928093
-10.6080589294 4.1479625702 0.6644084454
-10.5842294693 4.1813020706 0.6638240814
-10.5602960587 4.2145256996 0.6632397175
-10.5316295624 4.2457695007 0.6623632312
-10.5074968338 4.2787475586 0.6617788672
-10.4832630157 4.3116059303 0.6611945033
-10.4589271545 4.3443470001 0.6606101394
-10.4344921112 4.3769717216 0.6600258350
-10.4145536423 4.4114227295 0.6597336531
-10.3899097443 4.4438300133 0.6591492891
-10.3636045456 4.4797353745 0.6585649252
-10.3433284760 4.5138888359 0.6582727432
-10.3183727264 4.5459451675 0.6576884389
-10.2978801727 4.5799088478 0.6573962569
-10.2727212906 4.6117420197 0.6568118930
-10.2474641800 4.6434583664 0.6562275290
-10.2266530991 4.6771259308 0.6559353471
-10.2011995316 4.7086157799 0.6553509831
-10.1801757812 4.7420897484 0.6550588012
-10.1545248032 4.7733530998 0.6544744372
-10.1287775040 4.8044977188 0.6538900733
-10.1074419022 4.8376708031 0.6535978913
-10.0815029144 4.8685860634 0.6530135870
-10.0554704666 4.8993782997 0.6524292231
-10.0338268280 4.9322481155 0.6521370411
-10.0076017380 4.9628138542 0.6515526772
-9.9857530594 4.9954848289 0.6512604952
-9.9637975693 5.0280637741 0.6509683132
-9.9417362213 5.0605506897 0.6506761312
-9.9151287079 5.0906672478 0.6500918269
-9.8928642273 5.1229553223 0.6497996449
-9.8704957962 5.1551475525 0.6495074630
-9.8480243683 5.1872458458 0.6492152810
-9.8254480362 5.2192502022 0.6489230990
-9.8009347916 5.2545824051 0.6486309171
-9.7781410217 5.2863898277 0.6483387351
-9.7552452087 5.3181052208 0.6480466127
-9.7322463989 5.3497219086 0.6477544308
-9.7091464996 5.3812427521 0.6474622488
-9.6859455109 5.4126682281 0.6471700668
-9.6626424789 5.4439969063 0.6468778849
-9.6392383575 5.4752311707 0.6465857029
-9.6157350540 5.5063662529 0.6462935209
-9.5964555740 5.5398974419 0.6462935209
-9.5727443695 5.5708522797 0.6460013390
-9.5489349365 5.6017098427 0.6457092166
-9.5250234604 5.6324710846 0.6454170346
-9.5010166168 5.6631312370 0.6451248527
-9.4769105911 5.6936922073 0.6448326707
-9.4569787979 5.7267374992 0.6448326707
-9.4326696396 5.7571148872 0.6445404887
-9.4125146866 5.7900080681 0.6445404887
-9.3880023956 5.8201999664 0.6442483068
-9.3633947372 5.8502912521 0.6439561248
-9.3386917114 5.8802819252 0.6436639428
-9.3181095123 5.9128437042 0.6436639428
-9.2932062149 5.9426493645 0.6433718204
-9.2724056244 5.9750518799 0.6433718204
-9.2473049164 6.0046653748 0.6430796385
-9.2262887955 6.0369071960 0.6430796385
-9.1988735199 6.0695424080 0.6427874565
-9.1776304245 6.1016149521 0.6427874565
-9.1562767029 6.1336131096 0.6427874565
-9.1306705475 6.1627483368 0.6424952745
-9.1091032028 6.1945824623 0.6424952745
-9.0874252319 6.2263407707 0.6424952745
-9.0656356812 6.2580237389 0.6424952745
-9.0396366119 6.2867817879 0.6422030926
-9.0217247009 6.3211622238 0.6424952745
-8.9996051788 6.3526148796 0.6424952745
-8.9733066559 6.3810992241 0.6422030926
-5.5436611176 4.0032343864 0.3979438543
-5.5175366402 4.0137624741 0.3970673382
-5.5034923553 4.0329976082 0.3970673382
-5.4893813133 4.0521836281 0.3970673382
-5.4711956978 4.0683445930 0.3967751563
-5.4529638290 4.0844283104 0.3964829743
-5.4346857071 4.1004352570 0.3961907923
-5.4163632393 4.1163635254 0.3958986104
-5.3979959488 4.1322140694 0.3956064582
-5.3795838356 4.1479864120 0.3953142464
-5.3650722504 4.1667389870 0.3953142464
-5.3529663086 4.1903824806 0.3956064582
-5.3422274590 4.2121305466 0.3958986104
-5.3353147507 4.2369551659 0.3964829743
-5.3243927956 4.2586674690 0.3967751563
-5.3094954491 4.2772269249 0.3967751563
-5.2984113693 4.2988758087 0.3970673382
-5.2833724022 4.3173456192 0.3970673382
-5.2721261978 4.3389301300 0.3973594904
-5.2569489479 4.3573069572 0.3973594904
-5.2417073250 4.3756299019 0.3973594904
-5.2264018059 4.3939003944 0.3973594904
-5.2110314369 4.4121179581 0.3973594904
-5.1955986023 4.4302806854 0.3973594904
-5.1838917732 4.4516386986 0.3976516724
-5.1418762207 4.4468712807 0.3956064582
-5.1187891960 4.4582414627 0.3950220644
-5.1031951904 4.4760832787 0.3950220644
-4.9377970695 4.3618068695 0.3833350539
-4.8740253448 4.3359260559 0.3795367479
-4.6616778374 4.1765494347 0.3640514314
-4.5283894539 4.0858969688 0.3547017872
-4.3699111938 3.9708936214 0.3433069289
-4.2233500481 3.8649325371 0.3327885568
-4.0592155457 3.7411024570 0.3208093345
-3.9619112015 3.6772320271 0.3140892982
-3.8249537945 3.5752756596 0.3041553199
-3.7142231464 3.4963331223 0.2962665558
-3.6004664898 3.4132311344 0.2880856395
-3.5017926693 3.3431501389 0.2810734212
-3.3784384727 3.2482345104 0.2720159292
-3.3240003586 3.2183916569 0.2685098350
-3.1982550621 3.1186001301 0.2591601908
-3.1053395271 3.0494065285 0.2524401248
-3.0413751602 3.0076467991 0.2480574995
-2.9706580639 2.9584426880 0.2430905104
-2.8685622215 2.8770110607 0.2354939282
-2.8163034916 2.8444986343 0.2319878340
-2.7257618904 2.7725548744 0.2252677828
-2.6767005920 2.7437515259 0.2220538408
-2.6149370670 2.6993744373 0.2176711857
-2.5396547318 2.6402306557 0.2121198475
-2.4993469715 2.6166396141 0.2094902694
-2.4420337677 2.5747170448 0.2053997964
-2.3918988705 2.5396847725 0.2018936872
-2.3352096081 2.4970529079 0.1978032291
-2.2822499275 2.4577088356 0.1940049231
-2.2262043953 2.4143621922 0.1899144650
-2.1839964390 2.3853585720 0.1869926900
-2.1420178413 2.3560907841 0.1840709448
-2.1036224365 2.3302583694 0.1814413667
-2.0620956421 2.3004758358 0.1785195917
-2.0208027363 2.2704322338 0.1755978316
-1.9797452688 2.2401287556 0.1726760715
-1.9422227144 2.2133133411 0.1700464785
-1.9016265869 2.1825056076 0.1671247184
-1.8645422459 2.1552107334 0.1644951403
-1.8276721239 2.1276843548 0.1618655622
-1.7910171747 2.0999267101 0.1592359692
-1.7545779943 2.0719401836 0.1566063762
-1.7183570862 2.0437250137 0.1539768130
-1.6919741631 2.0267584324 0.1522237509
-1.6689238548 2.0134694576 0.1507628709
-1.6428074837 1.9961968660 0.1490098089
-1.6136655807 1.9749083519 0.1469645798
-1.5878458023 1.9573105574 0.1452115178
-1.5590296984 1.9356760979 0.1431662887
-1.5335096121 1.9177560806 0.1414132267
-1.5074706078 1.9002084732 0.1396601647
-1.4822465181 1.8819719553 0.1379071176
-1.4578183889 1.8630744219 0.1361540556
-1.4328802824 1.8445421457 0.1344010085
-1.4111467600 1.8298043013 0.1329401135
-1.3858580589 1.8114652634 0.1311870664
-1.3643854856 1.7964521646 0.1297261864
-1.3430341482 1.7813117504 0.1282653064
-1.3218058348 1.7660439014 0.1268044263
-1.3007007837 1.7506500483 0.1253435463
-1.2797192335 1.7351304293 0.1238826588
-1.2618207932 1.7235060930 0.1227139607
-1.2410743237 1.7077481747 0.1212530881
-1.2204537392 1.6918661594 0.1197922006
-1.1999593973 1.6758612394 0.1183313131
-1.1824939251 1.6637952328 0.1171626076
-1.1651275158 1.6516280174 0.1159939170
-1.1478600502 1.6393601894 0.1148252040
-1.1306930780 1.6269918680 0.1136564985
-1.1164716482 1.6186251640 0.1127799749
-1.0994918346 1.6060678959 0.1116112694
-1.0854296684 1.5975331068 0.1107347459
-1.0686383247 1.5847893953 0.1095660403
-1.0547372103 1.5760883093 0.1086895093
-1.0381368399 1.5631593466 0.1075208038
-1.0243983269 1.5542937517 0.1066442728
-1.0079904795 1.5411821604 0.1054755673
-0.9916862845 1.5279753208 0.1043068692
-0.9782020450 1.5188618898 0.1034303382
-0.9620933533 1.5054751635 0.1022616401
-0.9487757683 1.4962019920 0.1013851091
-0.9355346560 1.4868543148 0.1005085781
-0.9223701358 1.4774329662 0.0996320471
-0.9092832804 1.4679377079 0.0987555161
-0.8989006281 1.4626137018 0.0981711671
-0.8859544992 1.4529815912 0.0972946435
-0.8730867505 1.4432770014 0.0964181125
-0.8628791571 1.4377725124 0.0958337635
-0.8501540422 1.4279334545 0.0949572325
-0.8375082612 1.4180233479 0.0940807089
-0.8274791241 1.4123408794 0.0934963450
-0.8149779439 1.4022984505 0.0926198214
-0.8050636649 1.3965024948 0.0920354724
-0.7927082777 1.3863294125 0.0911589414
-0.7829106450 1.3804209232 0.0905745924
-0.7702238560 1.3703877926 0.0896980613
-0.7605456710 1.3643647432 0.0891137123
-0.7509189844 1.3582909107 0.0885293558
-0.7389290929 1.3477982283 0.0876528323
-0.7294213772 1.3416154385 0.0870684832
-0.7199658751 1.3353827000 0.0864841267
-0.7105627656 1.3291003704 0.0858997703
-0.7012124062 1.3227688074 0.0853154212
-0.6919146180 1.3163884878 0.0847310647
-0.6826702952 1.3099592924 0.0841467157
-0.6734793782 1.3034816980 0.0835623592
-0.6620504260 1.2925217152 0.0826858357
-0.6529823542 1.2859402895 0.0821014866
-0.6439681053 1.2793115377 0.0815171301
-0.6327633262 1.2681775093 0.0806406066
-0.6261032820 1.2659126520 0.0803484321
-0.6150389314 1.2546695471 0.0794719011
-0.5600950718 1.1537384987 0.0727518499
-0.3565225601 0.7586765289 0.0467481725
-0.3581431806 0.7689396143 0.0473325290
-0.3575766683 0.7747040391 0.0476247035
-0.3464542925 0.7578420639 0.0464559980
-0.3458949924 0.7635804415 0.0467481725
-0.3390829265 0.7557013035 0.0461638235
-0.3364430070 0.7568802834 0.0461638235
-0.3297179043 0.7489394546 0.0455794707
-0.3250768185 0.7455235124 0.0452872962
-0.3204638362 0.7420842648 0.0449951179
-0.3158788383 0.7386218905 0.0447029434
-0.3113219142 0.7351366878 0.0444107689
-0.3087539375 0.7362188697 0.0444107689
-0.3042373359 0.7326951623 0.0441185907
-0.2997492850 0.7291489244 0.0438264161
-0.2933771908 0.7209697366 0.0432420634
-0.2889623046 0.7173722386 0.0429498851
-0.2845761478 0.7137528062 0.0426577106
-0.2802186310 0.7101115584 0.0423655324
-0.2758902013 0.7064486146 0.0420733579
-0.2715907991 0.7027641535 0.0417811796
-0.2673204839 0.6990583539 0.0414890051
-0.2630793750 0.6953313351 0.0411968306
-0.2588673830 0.6915833950 0.0409046523
-0.2544450164 0.6879032850 0.0406124778
-0.2505320609 0.6840248704 0.0403203033
-0.2481428832 0.6848952174 0.0403203033
-0.2440328449 0.6810706258 0.0400281250
-0.2399523854 0.6772258878 0.0397359505
-0.2356670201 0.6734431386 0.0394437760
-0.2316476703 0.6695567966 0.0391515940
-0.2278909236 0.6655711532 0.0388594195
-0.2239305228 0.6616467834 0.0385672450
-0.2216194421 0.6624244452 0.0385672450
-0.2177030444 0.6584668756 0.0382750668
-0.2154032737 0.6592227817 0.0382750668
-0.2115311176 0.6552324891 0.0379828922
-0.2076894641 0.6512231827 0.0376907177
-0.2036524266 0.6472663283 0.0373985395
-0.2013918459 0.6479732394 0.0373985395
-0.1976268440 0.6439121366 0.0371063650
-0.1938928217 0.6398326755 0.0368141904
-0.1901897341 0.6357350349 0.0365220122
-0.1879694760 0.6363950372 0.0365220122
-0.1843117476 0.6322666407 0.0362298377
-0.1806849837 0.6281205416 0.0359376632
-0.1784913689 0.6287474036 0.0359376632
-0.1749105453 0.6245711446 0.0356454849
-0.1727293432 0.6251779199 0.0356454849
-0.1691945046 0.6209719777 0.0353533067
-0.1656910032 0.6167491078 0.0350611322
-0.1622192115 0.6125094295 0.0347689539
-0.1600802094 0.6130719185 0.0347689539
-0.1566549242 0.6088035703 0.0344767794
-0.1545288861 0.6093466878 0.0344767794
-0.1524008065 0.6098824143 0.0344767794
-0.1490372866 0.6055740714 0.0341846012
-0.1469225734 0.6060906053 0.0341846012
-0.1436061114 0.6017547250 0.0338924266
-0.1403215975 0.5974031091 0.0336002521
-0.1382355988 0.5978892446 0.0336002521
-0.1349984705 0.5935108066 0.0333080739
-0.1329258084 0.5939784646 0.0333080739
-0.1308517903 0.5944387913 0.0333080739
-0.1276777089 0.5900228024 0.0330158994
-0.1256175339 0.5904648304 0.0330158994
-0.1224913523 0.5860230923 0.0327237248
-0.1204449013 0.5864471197 0.0327237248
-0.1173671409 0.5819799304 0.0324315466
-0.1153348312 0.5823860765 0.0324315466
-0.1123054028 0.5778940320 0.0321393721
-0.1093084589 0.5733880401 0.0318471976
-0.1073061898 0.5737661123 0.0318471976
-0.1043581516 0.5692358613 0.0315550156
-0.1023704112 0.5695967078 0.0315550156
-0.0994712114 0.5650427938 0.0312628411
-0.0974981189 0.5653865933 0.0312628411
-0.0946476683 0.5608095527 0.0309706647
-0.0926896557 0.5611365438 0.0309706647
-0.0907302648 0.5614566803 0.0309706647
-0.0879453272 0.5568470955 0.0306784902
-0.0860009193 0.5571506619 0.0306784902
-0.0832651779 0.5525190234 0.0303863138
-0.0813361779 0.5528062582 0.0303863138
-0.0794059336 0.5530868173 0.0303863138
-0.0774749666 0.5533606410 0.0303863138
-0.0748213828 0.5486886501 0.0300941374
-0.0729055479 0.5489464998 0.0300941374
-0.0709890798 0.5491976142 0.0300941374
-0.0684018433 0.5444957614 0.0298019629
-0.0665009320 0.5447311997 0.0298019629
-0.0645989478 0.5449600220 0.0298019629
-0.0626961961 0.5451822281 0.0298019629
-0.0607929230 0.5453976989 0.0298019629
-0.0583054423 0.5406493545 0.0295097865
-0.0564180203 0.5408495665 0.0295097865
-0.0545296445 0.5410432220 0.0295097865
-0.0446169041 0.5369424820 0.0292176101
-0.0427422598 0.5370949507 0.0292176101
0.1144692600 0.5367040634 0.0298019629
0.1183648258 0.5460770130 0.0303863138
0.1233555824 0.5603135824 0.0312628411
0.1602011472 0.7106278539 0.0403203033
0.1626805216 0.7100643516 0.0403203033
0.1662547588 0.7143616080 0.0406124778
0.1698609591 0.7186425924 0.0409046523
0.1723682433 0.7180453539 0.0409046523
0.1748737842 0.7174392343 0.0409046523
0.1773768365 0.7168245316 0.0409046523
0.1786967665 0.7113512754 0.0406124778
0.1811788976 0.7107231617 0.0406124778
0.1836584657 0.7100864649 0.0406124778
0.1861361414 0.7094410062 0.0406124778
0.1886112243 0.7087870240 0.0406124778
0.1910843402 0.7081242800 0.0406124778
0.1935551316 0.7074528933 0.0406124778
0.1960232109 0.7067730427 0.0406124778
0.1984892488 0.7060844302 0.0406124778
0.1996194571 0.7005771995 0.0403203033
0.2020638734 0.6998760700 0.0403203033
0.2045057863 0.6991664171 0.0403203033
0.2055615187 0.6936524510 0.0400281250
0.2079816908 0.6929306388 0.0400281250
0.2089821845 0.6874143481 0.0397359505
0.2113805860 0.6866806149 0.0397359505
0.2137763947 0.6859385371 0.0397359505
0.2161692679 0.6851882339 0.0397359505
0.2185598165 0.6844294071 0.0397359505
0.2209473997 0.6836624146 0.0397359505
0.2233326286 0.6828869581 0.0397359505
0.2257151157 0.6821031570 0.0397359505
0.2278568149 0.6813907027 0.0397359505
0.2302336991 0.6805912852 0.0397359505
0.2326081544 0.6797834039 0.0397359505
0.2349797487 0.6789672375 0.0397359505
0.2373481542 0.6781429648 0.0397359505
0.2397140115 0.6773102880 0.0397359505
0.2420765907 0.6764694452 0.0397359505
0.2444365770 0.6756203175 0.0397359505
0.2451134324 0.6700627208 0.0394437760
0.2474507093 0.6692031026 0.0394437760
0.2497852892 0.6683351994 0.0394437760
0.2503871918 0.6627768874 0.0391515940
0.2526993454 0.6618987918 0.0391515940
0.2550083995 0.6610126495 0.0391515940
0.2555358112 0.6554545760 0.0388594195
0.2578223646 0.6545585394 0.0388594195
0.2601054013 0.6536546350 0.0388594195
0.2623856366 0.6527426839 0.0388594195
0.2646626532 0.6518227458 0.0388594195
0.2669361532 0.6508949995 0.0388594195
0.2692067027 0.6499592066 0.0388594195
0.2695820332 0.6443964839 0.0385672450
0.2718298733 0.6434515119 0.0385672450
0.2740744054 0.6424986720 0.0385672450
0.2763153017 0.6415381432 0.0385672450
0.2785531282 0.6405696273 0.0385672450
0.2807872295 0.6395934820 0.0385672450
0.2830182612 0.6386094093 0.0385672450
0.2852458060 0.6376175880 0.0385672450
0.2874695957 0.6366180778 0.0385672450
0.2896901965 0.6356106400 0.0385672450
0.2919069231 0.6345956922 0.0385672450
0.2941204309 0.6335728168 0.0385672450
0.2942469418 0.6280063391 0.0382750668
0.2964371145 0.6269754767 0.0382750668
0.2986240089 0.6259368658 0.0382750668
0.3008069098 0.6248907447 0.0382750668
0.3029864728 0.6238368750 0.0382750668
0.3051623404 0.6227753758 0.0382750668
0.3073341846 0.6217064857 0.0382750668
0.3073090315 0.6161462069 0.0379828922
0.3094577193 0.6150698662 0.0379828922
0.3116029501 0.6139858365 0.0379828922
0.3137443662 0.6128943563 0.0379828922
0.3158816993 0.6117954850 0.0379828922
0.3180154562 0.6106891036 0.0379828922
0.3201450408 0.6095753908 0.0379828922
0.3245734870 0.6128827929 0.0382750668
0.3267109990 0.6117460132 0.0382750668
0.3288442194 0.6106019616 0.0382750668
0.3309737444 0.6094502807 0.0382750668
0.3330989182 0.6082913280 0.0382750668
0.3328409195 0.6027370095 0.0379828922
0.3349429667 0.6015714407 0.0379828922
0.3370406032 0.6003987193 0.0379828922
0.3391344845 0.5992184877 0.0379828922
0.3410152197 0.5981501341 0.0379828922
0.3406470716 0.5926095843 0.0376907177
0.3427134156 0.5914170146 0.0376907177
0.3422914743 0.5858877897 0.0373985395
0.3443343341 0.5846894979 0.0373985395
0.3438587487 0.5791721344 0.0371063650
0.3458784521 0.5779682398 0.0371063650
0.3478936553 0.5767574906 0.0371063650
0.3499049246 0.5755395293 0.0371063650
0.3519116342 0.5743147135 0.0371063650
0.3539143205 0.5730827451 0.0371063650
0.3559127152 0.5718438029 0.0371063650
0.3579064906 0.5705980659 0.0371063650
0.3598961830 0.5693451762 0.0371063650
0.3618811965 0.5680855513 0.0371063650
0.3638620973 0.5668188334 0.0371063650
0.3631603122 0.5613331199 0.0368141904
0.3651173711 0.5600621104 0.0368141904
0.3670702577 0.5587841272 0.0368141904
0.3690183461 0.5574995279 0.0368141904
0.3709622622 0.5562079549 0.0368141904
0.3729016185 0.5549095869 0.0368141904
0.3748361766 0.5536046624 0.0368141904
0.3767664731 0.5522927642 0.0368141904
0.3786918521 0.5509743690 0.0368141904
0.3806129098 0.5496490598 0.0368141904
0.3825293481 0.5483170748 0.0368141904
0.3844408393 0.5469785333 0.0368141904
0.3863479197 0.5456331968 0.0368141904
0.3882499933 0.5442813635 0.0368141904
0.3901476562 0.5429227352 0.0368141904
0.3920405209 0.5415574908 0.0368141904
0.3968375623 0.5442418456 0.0371063650
0.3987350166 0.5428532362 0.0371063650
0.4006273150 0.5414581895 0.0371063650
0.4025150239 0.5400563478 0.0371063650
0.4043978155 0.5386479497 0.0371063650
0.4062754512 0.5372331738 0.0371063650
0.4081483781 0.5358116627 0.0371063650
0.4100160599 0.5343838334 0.0371063650
0.4118790030 0.5329492092 0.0371063650
0.4137369394 0.5315082073 0.0371063650
0.4125406146 0.5261088610 0.0368141904
0.4143746793 0.5246655345 0.0368141904
0.4162034094 0.5232160091 0.0368141904
0.4180273414 0.5217599273 0.0368141904
0.4198461771 0.5202974677 0.0368141904
0.4216596484 0.5188288689 0.0368141904
0.4234682322 0.5173537731 0.0368141904
0.4252713919 0.5158725977 0.0368141904
0.4300469160 0.5184003115 0.0371063650
0.4318537116 0.5168961287 0.0371063650
0.4336555004 0.5153853893 0.0371063650
0.4354517162 0.5138686895 0.0371063650
0.4372428954 0.5123454332 0.0371063650
0.4390287697 0.5108159781 0.0371063650
0.4408090115 0.5092805028 0.0371063650
0.4425841570 0.5077385902 0.0371063650
0.4445304871 0.5060354471 0.0371063650
0.4461179674 0.5046364665 0.0371063650
0.4511666298 0.5068299770 0.0373985395
0.4529329240 0.5052521825 0.0373985395
0.4546939135 0.5036679506 0.0373985395
0.4564491212 0.5020778775 0.0373985395
0.4581990242 0.5004814267 0.0373985395
0.4599433243 0.4988788664 0.0373985395
0.4616817832 0.4972704351 0.0373985395
0.4634148777 0.4956557453 0.0373985395
0.4651420712 0.4940352440 0.0373985395
0.4668638408 0.4924084842 0.0373985395
0.4685799181 0.4907757640 0.0373985395
0.4702900350 0.4891372621 0.0373985395
0.4719946980 0.4874925613 0.0373985395
0.4702366292 0.4822413325 0.0371063650
0.4719172120 0.4805968702 0.0371063650
0.4701102972 0.4753699601 0.0368141904
0.4717666209 0.4737262130 0.0368141904
0.4734174609 0.4720764458 0.0368141904
0.4785812795 0.4739611447 0.0371063650
0.4802329242 0.4722875953 0.0371063650
0.4818786681 0.4706082940 0.0371063650
0.4835183322 0.4689235091 0.0371063650
0.4851523340 0.4672327340 0.0371063650
0.4903604090 0.4690145552 0.0373985395
0.4919946790 0.4672999084 0.0373985395
0.4936229587 0.4655795991 0.0373985395
0.4952449799 0.4638538361 0.0373985395
0.4968612194 0.4621221721 0.0373985395
0.4983105063 0.4605590105 0.0373985395
0.4999152124 0.4588167071 0.0373985395
0.5015136003 0.4570690095 0.0373985395
0.5031061172 0.4553155005 0.0373985395
0.5046922565 0.4535567164 0.0373985395
0.5062724948 0.4517921507 0.0373985395
0.5115565062 0.4533613622 0.0376907177
0.5131357312 0.4515731037 0.0376907177
0.5147089958 0.4497790635 0.0376907177
0.5125310421 0.4446795583 0.0373985395
0.5140802264 0.4428876638 0.0373985395
0.5156231523 0.4410904050 0.0373985395
0.5171595812 0.4392880201 0.0373985395
0.5224803686 0.4407276511 0.0376907177
0.5240154266 0.4389013350 0.0376907177
0.5255444050 0.4370693862 0.0376907177
0.5270669460 0.4352321327 0.0376907177
0.5285828710 0.4333898425 0.0376907177
0.5300925374 0.4315419793 0.0376907177
0.5315955281 0.4296891391 0.0376907177
0.5330922604 0.4278308153 0.0376907177
0.5345824957 0.4259672761 0.0376907177
0.5360660553 0.4240987897 0.0376907177
0.5375432372 0.4222248495 0.0376907177
0.5390136838 0.4203460813 0.0376907177
0.5404777527 0.4184618890 0.0376907177
0.5419352651 0.4165726304 0.0376907177
0.5473304987 0.4177371562 0.0379828922
0.5487853885 0.4158239365 0.0379828922
0.5541992188 0.4169369638 0.0382750668
0.5556513667 0.4149997830 0.0382750668
0.5610835552 0.4160608053 0.0385672450
0.5623878241 0.4142961204 0.0385672450
0.5638306141 0.4123303890 0.0385672450
0.5692834258 0.4133226275 0.0388594195
0.5707228184 0.4113328457 0.0388594195
0.5721550584 0.4093382955 0.0388594195
0.5735805035 0.4073385000 0.0388594195
0.5749989748 0.4053337276 0.0388594195
0.5723420382 0.4004321396 0.0385672450
0.5737364292 0.3984317482 0.0385672450
0.5751235485 0.3964267969 0.0385672450
0.5765039325 0.3944166899 0.0385672450
0.5819854140 0.3952368796 0.0388594195
0.5833613873 0.3932031393 0.0388594195
0.5888583064 0.3939706683 0.0391515940
0.5902298093 0.3919129372 0.0391515940
0.5915943384 0.3898501396 0.0391515940
0.5971086621 0.3905455768 0.0394437760
0.5984681845 0.3884590864 0.0394437760
0.6039967537 0.3891014159 0.0397359505
0.6053512096 0.3869908750 0.0397359505
0.6066984534 0.3848753273 0.0397359505
0.6122428775 0.3854450881 0.0400281250
0.6134507060 0.3835198283 0.0400281250
0.6190079451 0.3840383887 0.0403203033
0.6203448176 0.3818751574 0.0403203033
0.6216740608 0.3797073066 0.0403203033
0.6229956150 0.3775351346 0.0403203033
0.6200506687 0.3727552295 0.0400281250
0.6213479042 0.3705887794 0.0400281250
0.6183606386 0.3658444285 0.0397359505
0.6196339726 0.3636836112 0.0397359505
0.6166045666 0.3589755595 0.0394437760
0.6049422622 0.3492365479 0.0385672450
0.5802814960 0.3320446312 0.0368141904
0.5382229090 0.3050370216 0.0338924266
0.5436145663 0.3056392074 0.0341846012
0.5620330572 0.3136109412 0.0353533067
0.5631243587 0.3116470575 0.0353533067
0.5772763491 0.3169919252 0.0362298377
0.5871081352 0.3198191822 0.0368141904
0.5969665647 0.3225816190 0.0373985395
0.6068511605 0.3252793550 0.0379828922
0.6167619228 0.3279116452 0.0385672450
0.6310960054 0.3328400254 0.0394437760
0.6366599798 0.3329805732 0.0397359505
0.6510608792 0.3377468288 0.0406124778
0.6610802412 0.3401020169 0.0411968306
0.6755543351 0.3446903527 0.0420733579
0.6811915636 0.3446142375 0.0423655324
0.6868366599 0.3445025980 0.0426577106
0.6880350709 0.3421028554 0.0426577106
0.6847629547 0.3374619782 0.0423655324
0.6813507676 0.3330858946 0.0420733579
0.6825093627 0.3307053745 0.0420733579
0.6791752577 0.3261288106 0.0417811796
0.6759297252 0.3213437498 0.0414890051
0.6770472527 0.3189825416 0.0414890051
0.6735388637 0.3147091269 0.0411968306
0.6746333838 0.3123559654 0.0411968306
0.6711977124 0.3078856170 0.0409046523
0.6677389741 0.3034433722 0.0406124778
0.6642575860 0.2990287542 0.0403203033
0.6607534289 0.2946424782 0.0400281250
0.6617779136 0.2923340797 0.0400281250
0.6582362652 0.2879879773 0.0397359505
0.6546722054 0.2836704552 0.0394437760
0.6510861516 0.2793810368 0.0391515940
0.6474781632 0.2751204669 0.0388594195
0.6438485384 0.2708882093 0.0385672450
0.6447902322 0.2686389685 0.0385672450
0.6457239389 0.2663868070 0.0385672450
0.6466498971 0.2641310394 0.0385672450
0.6475678682 0.2618724108 0.0385672450
0.6484780908 0.2596102357 0.0385672450
0.6493803859 0.2573449314 0.0385672450
0.6456418037 0.2532190681 0.0382750668
0.6465218067 0.2509636879 0.0382750668
0.6427481174 0.2468802631 0.0379828922
0.6435206532 0.2448595464 0.0379828922
0.6397136450 0.2408174723 0.0376907177
0.6405503750 0.2385828495 0.0376907177
0.6367090940 0.2345837504 0.0373985395
0.6328478456 0.2306140661 0.0371063650
0.6289666891 0.2266742289 0.0368141904
0.6297540069 0.2244775295 0.0368141904
0.6258395314 0.2205812484 0.0365220122
0.6219053864 0.2167153805 0.0362298377
0.6179521084 0.2128793597 0.0359376632
0.6186915040 0.2107208967 0.0359376632
0.6147056818 0.2069293261 0.0356454849
0.6107010841 0.2031678557 0.0353533067
0.6066776514 0.1994372159 0.0350611322
0.6026358604 0.1957368404 0.0347689539
0.6033154726 0.1936319470 0.0347689539
0.5992423892 0.1899767369 0.0344767794
0.5951512456 0.1863520294 0.0341846012
0.5957980752 0.1842736155 0.0341846012
0.5916764736 0.1806941777 0.0338924266
0.5923036337 0.1786276400 0.0338924266
0.5881519914 0.1750940084 0.0336002521
0.5887596011 0.1730397791 0.0336002521
0.5845783353 0.1695519090 0.0333080739
0.5851081610 0.1677143574 0.0333080739
0.5808988810 0.1642709970 0.0330158994
0.5814688206 0.1622421592 0.0330158994
0.5772308111 0.1588450223 0.0327237248
0.5729763508 0.1554791778 0.0324315466
0.5735155940 0.1534780711 0.0324315466
0.5692330599 0.1501590759 0.0321393721
0.5697537661 0.1481710523 0.0321393721
0.5654436350 0.1448988914 0.0318471976
0.5659459829 0.1429241300 0.0318471976
0.5616087317 0.1396986991 0.0315550156
0.5620929003 0.1377376318 0.0315550156
0.5577290058 0.1345594525 0.0312628411
0.5581952929 0.1326119751 0.0312628411
0.5538051724 0.1294812560 0.0309706647
0.5542538166 0.1275472343 0.0309706647
0.5498378277 0.1244644746 0.0306784902
0.5502689481 0.1225443035 0.0306784902
0.5458276868 0.1195094436 0.0303863138
