0.2013089955 -8.1640014648 0.2255845219
0.1723743826 -8.1446666718 0.2250295728
0.1435772181 -8.1252298355 0.2244746387
0.1148426235 -8.1006937027 0.2237809449
0.0863388628 -8.0810546875 0.2232260108
0.0579725243 -8.0613145828 0.2226710618
0.0297461301 -8.0414762497 0.2221161276
0.0016589385 -8.0215387344 0.2215611786
-0.0262897667 -8.0015029907 0.2210062295
-0.0540975146 -7.9813704491 0.2204512954
-0.0817660913 -7.9611415863 0.2198963463
-0.1092930511 -7.9408173561 0.2193413973
-0.1366791129 -7.9203977585 0.2187864631
-0.1639250219 -7.8998842239 0.2182315141
-0.1912638396 -7.8892707825 0.2179540545
-0.2181260288 -7.8635735512 0.2172603756
-0.2380942255 -7.6179733276 0.2104623169
-0.2858339846 -7.4712829590 0.2064389735
-0.1223390996 -2.4356224537 0.0665932149
-0.1308401376 -2.4351806641 0.0665932149
-0.1409877688 -2.4646522999 0.0674256310
-0.1492979676 -2.4591555595 0.0672868937
-0.1591192186 -2.4785735607 0.0678418353
-0.1700581908 -2.5129146576 0.0688129887
-0.1788287312 -2.5123057365 0.0688129887
-0.1854272187 -2.4817564487 0.0679805800
-0.1918143034 -2.4511916637 0.0671481565
-0.1971976459 -2.4106485844 0.0660382733
-0.2060249448 -2.4149267673 0.0661770105
-0.2135906965 -2.4042339325 0.0658995360
-0.2215332687 -2.3984956741 0.0657607988
-0.2294380963 -2.3927316666 0.0656220689
-0.2373056859 -2.3869414330 0.0654833242
-0.2451353669 -2.3811256886 0.0653445944
-0.2529273033 -2.3752841949 0.0652058572
-0.2606818080 -2.3694176674 0.0650671273
-0.2678453028 -2.3585584164 0.0647896528
-0.2755066454 -2.3526434898 0.0646509156
-0.2831296325 -2.3467042446 0.0645121783
-0.2913193107 -2.3457016945 0.0645121783
-0.2988836467 -2.3397111893 0.0643734410
-0.3070488274 -2.3386535645 0.0643734410
-0.3145538568 -2.3326129913 0.0642347112
-0.3206721544 -2.3166434765 0.0638184994
-0.3370520175 -2.3749103546 0.0654833242
-1.0453903675 -7.2619438171 0.2025543600
-1.0671033859 -7.2335252762 0.2018606812
-1.0908610821 -7.2198710442 0.2015832216
-1.1145354509 -7.2061395645 0.2013057321
-1.1373497248 -7.1873936653 0.2008895278
-1.1600476503 -7.1685762405 0.2004733235
-1.1834391356 -7.1546196938 0.2001958489
-1.2059191465 -7.1356587410 0.1997796446
-1.2291268110 -7.1215543747 0.1995021850
-1.2513868809 -7.1024518013 0.1990859658
-1.2744104862 -7.0882005692 0.1988085061
-1.2964508533 -7.0689582825 0.1983922869
-1.3183734417 -7.0496492386 0.1979760826
-1.3411084414 -7.0351839066 0.1976986080
-1.3637584448 -7.0206451416 0.1974211335
-1.3853577375 -7.0011310577 0.1970049292
-1.4078201056 -6.9864516258 0.1967274547
-1.4291971922 -6.9668045044 0.1963112503
-1.4504534006 -6.9470934868 0.1958950460
-1.4715894461 -6.9273190498 0.1954788417
-1.4936579466 -6.9123673439 0.1952013671
-1.5167081356 -6.9022288322 0.1950626224
-1.5397065878 -6.8920135498 0.1949238926
-1.5615484715 -6.8768477440 0.1946464181
-1.5844230652 -6.8664841652 0.1945076883
-1.6061084270 -6.8511776924 0.1942302138
-1.6265511513 -6.8309402466 0.1938139945
-1.6492152214 -6.8203620911 0.1936752796
-1.6706364155 -6.8048539162 0.1933977902
-1.6907645464 -6.7844290733 0.1929815859
-0.5488052964 -2.1549930573 0.0606275722
-0.5550854802 -2.1482222080 0.0604888424
-0.5613252521 -2.1414334774 0.0603501014
-0.9441900253 -3.5653045177 0.1012771800
-0.5633674860 -2.0891737938 0.0589627437
-0.5497570038 -2.0100045204 0.0567429662
-0.5554467440 -2.0032534599 0.0566042326
-0.5610963106 -1.9964872599 0.0564654954
-0.5680617690 -1.9945164919 0.0564654954
-0.5736469626 -1.9877159595 0.0563267618
-0.5791918039 -1.9809004068 0.0561880246
-0.5861027837 -1.9788665771 0.0561880246
-0.5915832520 -1.9720177650 0.0560492910
-0.5984631777 -1.9699407816 0.0560492910
-0.6038786173 -1.9630587101 0.0559105501
-0.6107274294 -1.9609386921 0.0559105501
-0.6175685525 -1.9587949514 0.0559105501
-0.6259095669 -1.9613928795 0.0560492910
-0.6357996464 -1.9687163830 0.0563267618
-0.6827166080 -2.0901095867 0.0599338934
-0.6884515882 -2.0829644203 0.0597951598
-0.7020121813 -2.0995244980 0.0603501014
-0.7109268308 -2.1017994881 0.0604888424
-0.7166524529 -2.0945723057 0.0603501014
-0.7239593863 -2.0920579433 0.0603501014
-0.7312577963 -2.0895180702 0.0603501014
-0.7368909121 -2.0822370052 0.0602113642
-0.7441549301 -2.0796520710 0.0602113642
-0.7514096498 -2.0770418644 0.0602113642
-0.7569499016 -2.0697083473 0.0600726306
-0.7624483109 -2.0623610020 0.0599338934
-0.7644282579 -2.0456287861 0.0595176890
-0.7663009763 -2.0289077759 0.0591014773
-0.7680661678 -2.0121991634 0.0586852729
-0.7679369450 -1.9908351898 0.0581303313
-0.7784884572 -1.9974651337 0.0584078021
-0.7854560614 -1.9947355986 0.0584078021
-0.7942501903 -1.9966301918 0.0585465357
-0.8030669093 -1.9984879494 0.0586852729
-0.8100379109 -1.9956725836 0.0586852729
-0.8169993162 -1.9928328991 0.0586852729
-0.8239505291 -1.9899688959 0.0586852729
-0.8347253799 -1.9963124990 0.0589627437
-0.8494198322 -2.0118234158 0.0595176890
-0.8622837663 -2.0226535797 0.0599338934
-0.8791638017 -2.0426094532 0.0606275722
-0.8862883449 -2.0395281315 0.0606275722
-0.8814205527 -2.0089311600 0.0597951598
-0.8783627152 -1.9829682112 0.0591014773
-0.8731056452 -1.9524836540 0.0582690611
-0.8819608092 -1.9539847374 0.0584078021
-0.8867152333 -1.9463406801 0.0582690611
-0.8914273977 -1.9386874437 0.0581303313
-0.8981891274 -1.9355640411 0.0581303313
-0.9028315544 -1.9278852940 0.0579915904
-0.9095557928 -1.9247219563 0.0579915904
-0.9162686467 -1.9215353727 0.0579915904
-0.9229706526 -1.9183251858 0.0579915904
-0.9296611547 -1.9150917530 0.0579915904
-0.9363402724 -1.9118350744 0.0579915904
-0.9408055544 -1.9040684700 0.0578528605
-0.9474461675 -1.9007729292 0.0578528605
-0.9518414140 -1.8929829597 0.0577141196
-0.9561936855 -1.8851858377 0.0575753860
-0.9627682567 -1.8818366528 0.0575753860
-0.9670506120 -1.8740170002 0.0574366488
-0.9735862017 -1.8706300259 0.0574366488
-0.9801101089 -1.8672200441 0.0574366488
-0.9866218567 -1.8637875319 0.0574366488
-0.9907790422 -1.8559173346 0.0572979152
-0.9996094704 -1.8568542004 0.0574366488
-1.0060849190 -1.8533537388 0.0574366488
-1.0077708960 -1.8410497904 0.0571591780
-1.6955833435 -3.0541837215 0.0958664864
-1.7111034393 -3.0569765568 0.0961439535
-1.7217637300 -3.0509850979 0.0961439535
-1.7324033976 -3.0449562073 0.0961439535
-1.7380613089 -3.0302119255 0.0958664864
-1.7461326122 -3.0197958946 0.0957277417
-1.7541530132 -3.0093603134 0.0955890119
-1.7646467686 -3.0032191277 0.0955890119
-1.7725789547 -2.9927363396 0.0954502746
-1.7830145359 -2.9865307808 0.0954502746
-1.7934285402 -2.9802887440 0.0954502746
-1.8012356758 -2.9697329998 0.0953115448
-1.8011895418 -2.9463539124 0.0947565958
-1.8062330484 -2.9315299988 0.0944791287
-1.1134036779 -1.7614433765 0.0567429662
-1.1115221977 -1.7448793650 0.0563267618
-1.1364303827 -1.7704796791 0.0572979152
-1.8785533905 -2.9095466137 0.0950340703
-1.9028043747 -2.9236075878 0.0957277417
-1.9129979610 -2.9169478416 0.0957277417
-1.9259178638 -2.9144265652 0.0958664864
-1.9333153963 -2.9035215378 0.0957277417
-1.9323257208 -2.8801364899 0.0951728001
-3.6431331635 -5.3977117538 0.1796629429
-3.6647593975 -5.3890976906 0.1798016876
-2.4081912041 -3.5115654469 0.1170930713
-2.3665506840 -3.4249422550 0.1144570932
-2.3898925781 -3.4330832958 0.1150120348
-2.3961324692 -3.4165284634 0.1147345603
-2.3907704353 -3.3836297989 0.1139021516
-2.3996739388 -3.3711881638 0.1137634143
-2.4085192680 -3.3587255478 0.1136246696
-2.4260718822 -3.3584086895 0.1139021516
-2.4436514378 -3.3580095768 0.1141796112
-2.4612576962 -3.3575289249 0.1144570932
-2.4729630947 -3.3489170074 0.1144570932
-2.5025048256 -3.3643488884 0.1152895018
-2.5232088566 -3.3676044941 0.1157057211
-2.5289371014 -3.3507895470 0.1154282391
-4.0142545700 -5.2854981422 0.1831313521
-4.0326800346 -5.2714533806 0.1831313521
-4.0479540825 -5.2155160904 0.1821601987
-3.8631808758 -4.9413042068 0.1730036139
-3.8865833282 -4.9356479645 0.1732811034
-3.9037878513 -4.9220514297 0.1732811034
-3.9147138596 -4.9005784988 0.1730036139
-3.9098877907 -4.8596062660 0.1720324755
-3.5585761070 -4.3594560623 0.1551066935
-3.5769419670 -4.3508720398 0.1552454382
-3.5889246464 -4.3345060349 0.1551066935
-3.6040327549 -4.3219518661 0.1551066935
-3.6158864498 -4.3055152893 0.1549679637
-3.6373412609 -4.3005056381 0.1552454382
-3.6725077629 -4.3099889755 0.1560778469
-3.6987876892 -4.3072404861 0.1564940512
-4.3377976418 -4.9836802483 0.1822989285
-4.3650417328 -4.9797921181 0.1827151477
-4.3823976517 -4.9645252228 0.1827151477
-4.3963823318 -4.9454593658 0.1825764030
-4.4202795029 -4.9375362396 0.1828538626
-4.4374890327 -4.9220757484 0.1828538626
-4.4579997063 -4.9102592468 0.1829926074
-4.4751124382 -4.8946681023 0.1829926074
-4.4955530167 -4.8826975822 0.1831313521
-4.5125689507 -4.8669753075 0.1831313521
-4.5329394341 -4.8548493385 0.1832700819
-4.5498580933 -4.8389968872 0.1832700819
-4.5701546669 -4.8267173767 0.1834088117
-4.5904211998 -4.8143558502 0.1835475564
-4.6106572151 -4.8019108772 0.1836862862
-4.6308631897 -4.7893824577 0.1838250309
-4.6510362625 -4.7767724991 0.1839637607
-4.6711783409 -4.7640800476 0.1841024905
-4.6877794266 -4.7477459908 0.1841024905
-4.7078447342 -4.7349009514 0.1842412353
-4.7278785706 -4.7219724655 0.1843799651
-4.7478775978 -4.7089629173 0.1845186949
-4.7642860413 -4.6923613548 0.1845186949
-4.7877769470 -4.6826977730 0.1847961694
-4.8112583160 -4.6729273796 0.1850736588
-4.8347311020 -4.6630487442 0.1853511184
-4.8654055595 -4.6599841118 0.1859060675
-4.8780231476 -4.6395249367 0.1857673228
-4.8832955360 -4.6121654510 0.1853511184
-4.9248647690 -4.6190462112 0.1863222718
-17.0272712708 -15.8764352798 0.6451218128
-17.1375827789 -15.8678503036 0.6472027898
-17.2112617493 -15.8248529434 0.6478965282
-5.0257797241 -4.5835423470 0.1877096295
-5.0417485237 -4.5659713745 0.1877096295
-29.2343235016 -25.7754726410 1.0807524920
-29.1511516571 -25.5217990875 1.0743705034
-5.1664381027 -4.4856200218 0.1888195127
-5.1223073006 -4.4144010544 0.1865997463
-5.1688165665 -4.4216122627 0.1877096295
-5.1804122925 -4.4003043175 0.1875708848
-5.3260817528 -4.3976202011 0.1906230897
-5.3413996696 -4.3790025711 0.1906230897
-5.3605260849 -4.3634891510 0.1907618195
-5.3485312462 -4.3227381706 0.1897906661
-5.3752760887 -4.3134346008 0.1902068853
-5.3981127739 -4.3008799553 0.1904843450
-5.4209280014 -4.2882189751 0.1907618195
-5.4437193871 -4.2754507065 0.1910392791
-5.4664888382 -4.2625761032 0.1913167685
-5.4852848053 -4.2465295792 0.1914554834
-5.5119562149 -4.2365036011 0.1918717027
-5.5306816101 -4.2202730179 0.1920104474
-5.5692687035 -4.2190685272 0.1928428560
-5.5839619637 -4.1996026039 0.1928428560
-5.6186013222 -4.1950507164 0.1935365349
-5.9020857811 -4.3750243187 0.2028318346
-5.9656023979 -4.3899788857 0.2044966668
-5.9647545815 -4.3573236465 0.2039417326
-5.9435315132 -4.3100428581 0.2026931047
-5.8855643272 -4.2366552353 0.2001958489
-5.8474788666 -4.1782712936 0.1983922869
-5.8090586662 -4.1202049255 0.1965887249
-5.7253732681 -4.0307745934 0.1932590604
-5.7394084930 -4.0107650757 0.1932590604
-5.7246417999 -3.9707429409 0.1922879070
-5.7055506706 -3.9280371666 0.1911780238
-5.7233514786 -3.9109203815 0.1913167685
-5.7417821884 -3.8927240372 0.1914554834
-5.7643008232 -3.8772397041 0.1917329729
-5.7861094475 -3.8626518250 0.1920104474
-5.8078861237 -3.8479585648 0.1922879070
-5.8296318054 -3.8331589699 0.1925653964
-5.8513431549 -3.8182556629 0.1928428560
-5.8688287735 -3.8005278111 0.1929815859
-5.8904643059 -3.7854294777 0.1932590604
-5.9120659828 -3.7702264786 0.1935365349
-5.9336338043 -3.7549169064 0.1938139945
-5.9551663399 -3.7395045757 0.1940914840
-5.9766631126 -3.7239871025 0.1943689436
-5.9981241226 -3.7083656788 0.1946464181
-6.0195484161 -3.6926391125 0.1949238926
-6.0409374237 -3.6768069267 0.1952013671
-6.0622882843 -3.6608719826 0.1954788417
-6.0878863335 -3.6474044323 0.1958950460
-6.1091694832 -3.6312458515 0.1961725056
-6.1347179413 -3.6175251007 0.1965887249
-6.1559333801 -3.6011414528 0.1968661994
-6.1727871895 -3.5821435452 0.1970049292
-6.1939125061 -3.5655682087 0.1972824037
-6.1238903999 -3.4967751503 0.1946464181
-5.6361432076 -3.1917321682 0.1786918044
-5.5579118729 -3.0962762833 0.1755008698
-5.5118408203 -3.0453863144 0.1736973077
-5.5092945099 -3.0189116001 0.1732811034
-5.4802932739 -2.9781501293 0.1720324755
-5.4730648994 -2.9495015144 0.1714775264
-5.4701089859 -2.9233007431 0.1710613221
-5.4802799225 -2.9041888714 0.1710613221
-5.4107799530 -2.8431246281 0.1685640812
-5.3586440086 -2.7918348312 0.1666217744
-5.3372874260 -2.7570269108 0.1656506211
-5.3295683861 -2.7283210754 0.1650956869
-5.3172559738 -2.6974422932 0.1644019932
-5.3043236732 -2.6676175594 0.1637083292
-5.2778344154 -2.6312134266 0.1625984311
-5.2690720558 -2.6039011478 0.1620434821
-5.2063460350 -2.5502474308 0.1598237157
-5.2286987305 -2.5386199951 0.1602399349
-5.2420296669 -2.5225245953 0.1603786647
-5.2643313408 -2.5106785297 0.1607948691
-5.2911300659 -2.5008471012 0.1613498181
-5.4126877785 -2.5123379230 0.1645407379
-5.4214243889 -2.4934291840 0.1645407379
-5.4801034927 -2.4973328114 0.1660668254
-5.4887876511 -2.4781887531 0.1660668254
-5.5019655228 -2.4610579014 0.1662055701
-5.5196585655 -2.4458956718 0.1664830446
-5.5327367783 -2.4286267757 0.1666217744
-5.5503444672 -2.4132933617 0.1668992490
-5.5679121017 -2.3978667259 0.1671767235
-5.5854396820 -2.3823449612 0.1674541980
-5.6029267311 -2.3667318821 0.1677316725
-5.6157627106 -2.3490924835 0.1678703874
-5.6331605911 -2.3333094120 0.1681478769
-5.7152323723 -2.3440413475 0.1703676432
-5.6539421082 -2.2958095074 0.1682866067
-5.6294708252 -2.2629818916 0.1673154533
-4.5858592987 -1.8034499884 0.1356836706
-4.5828151703 -1.7837955952 0.1354062110
-4.5936756134 -1.7695896626 0.1355449408
-4.6138300896 -1.7588994503 0.1359611601
-4.6105923653 -1.7392452955 0.1356836706
-4.6166353226 -1.7231409550 0.1356836706
-4.6226220131 -1.7070156336 0.1356836706
-4.6285524368 -1.6908695698 0.1356836706
-4.6438245773 -1.6781090498 0.1359611601
-4.6355395317 -1.6568272114 0.1355449408
-4.6554265022 -1.6456489563 0.1359611601
-5.3420572281 -1.8473328352 0.1558003724
-5.4288449287 -1.8562376499 0.1581588835
-5.5252261162 -1.8677700758 0.1607948691
-5.6217522621 -1.8786518574 0.1634308547
-5.7279095650 -1.8920258284 0.1663442999
-5.8294777870 -1.9031258821 0.1691190153
-5.9264373779 -1.9119993448 0.1717550159
-6.0140066147 -1.9171761274 0.1741135269
-6.0873851776 -1.9172481298 0.1760558188
-6.1751508713 -1.9212974310 0.1784143299
-6.2486886978 -1.9203407764 0.1803566366
-6.3175134659 -1.9174365997 0.1821601987
-6.3867259026 -1.9129626751 0.1839637607
-6.4511990547 -1.9065850973 0.1856285930
-6.5153779984 -1.9008984566 0.1872934252
-6.5747933388 -1.8933999538 0.1888195127
-6.6342349052 -1.8855096102 0.1903456002
-6.6937017441 -1.8772273064 0.1918717027
-6.7483744621 -1.8672140837 0.1932590604
-6.8078789711 -1.8581635952 0.1947851628
-6.8625760078 -1.8474173546 0.1961725056
-6.9172811508 -1.8363116980 0.1975598782
-6.9719915390 -1.8248466253 0.1989472359
-7.0267052650 -1.8130197525 0.2003345937
-7.0814213753 -1.8008350134 0.2017219514
-7.1361365318 -1.7882900238 0.2031093091
-7.1908507347 -1.7753851414 0.2044966668
-7.2455601692 -1.7621196508 0.2058840245
-7.3002653122 -1.7484920025 0.2072713822
-7.3500986099 -1.7333549261 0.2085200101
-7.4047827721 -1.7190248966 0.2099073678
-7.4545831680 -1.7032172680 0.2111559808
-7.5043635368 -1.6870828867 0.2124046087
-7.5590014458 -1.6717022657 0.2137919664
-7.6087393761 -1.6548969746 0.2150405943
-7.6584506035 -1.6377645731 0.2162892073
-7.7032451630 -1.6192740202 0.2173991054
-7.7528963089 -1.6015046835 0.2186477184
-7.7978963852 -1.5810488462 0.2197576016
-7.8379487991 -1.5593061447 0.2207287699
-7.8776769638 -1.5386672020 0.2216999084
-7.9173560143 -1.5177698135 0.2226710618
-7.9520735741 -1.4956868887 0.2235034704
-7.9916486740 -1.4742902517 0.2244746387
-8.0311698914 -1.4526331425 0.2254457921
-8.0706367493 -1.4307200909 0.2264169306
-8.1051244736 -1.4076907635 0.2272493392
-8.1444759369 -1.3852791786 0.2282204926
-8.1837701797 -1.3626102209 0.2291916609
-8.2180719376 -1.3388745785 0.2300240695
-8.2572422028 -1.3157078028 0.2309952229
-8.2914123535 -1.2915112972 0.2318276316
-8.3304548264 -1.2678475380 0.2327987701
-8.3694334030 -1.2439268827 0.2337699533
-8.4132919312 -1.2204679251 0.2348798364
-8.4620361328 -1.1974234581 0.2361284643
-8.5158758163 -1.1732538939 0.2375157923
-5.9096989632 -0.7904820442 0.1644019932
-8.5785655975 -1.1194331646 0.2390418947
-8.6121683121 -1.0932768583 0.2398743033
-8.6506519318 -1.0675147772 0.2408454567
-8.6890621185 -1.0414952040 0.2418166250
-8.7174654007 -1.0140614510 0.2425102890
-8.7507495880 -0.9870051742 0.2433426976
-8.7839508057 -0.9597290754 0.2441751361
-8.8220376968 -0.9327615499 0.2451462895
-8.8550710678 -0.9050262570 0.2459786981
-8.8880176544 -0.8770740628 0.2468110919
-8.9159021378 -0.8484264612 0.2475048006
-8.9486703873 -0.8200538754 0.2483372092
-8.9813499451 -0.7914627790 0.2491696030
-9.0089588165 -0.7622269392 0.2498633116
-9.0414524078 -0.7332171798 0.2506957054
-9.0688705444 -0.7036002278 0.2513893843
-9.0961933136 -0.6738009453 0.2520830631
-9.1234169006 -0.6438193321 0.2527767420
-9.1505422592 -0.6136535406 0.2534704506
-9.1775674820 -0.5833085179 0.2541640997
-9.2044916153 -0.5527822971 0.2548577785
-9.2313156128 -0.5220752358 0.2555514872
-9.2530450821 -0.4909199476 0.2561064065
-9.2796621323 -0.4598671496 0.2568000853
-9.3062477112 -0.4270135164 0.2574937642
-9.3327178955 -0.3939687312 0.2581874430
-9.3590078354 -0.3623706996 0.2588811219
-9.3851900101 -0.3305938840 0.2595748007
-9.4112644196 -0.2986387312 0.2602685094
-9.4372291565 -0.2665030360 0.2609621584
-9.4630842209 -0.2341921926 0.2616558373
-9.4888286591 -0.2017041147 0.2623495162
-9.5144605637 -0.1690391302 0.2630431950
-9.5399808884 -0.1361976713 0.2637369037
-9.5653867722 -0.1031775698 0.2644305527
-9.5906782150 -0.0699842870 0.2651242316
-9.6158542633 -0.0366156995 0.2658179104
-9.6409139633 -0.0030721915 0.2665115893
-9.6658563614 0.0306458063 0.2672052979
-9.6856822968 0.0645099282 0.2677602172
-9.7103881836 0.0985582545 0.2684539258
-9.7299747467 0.1327144057 0.2690088451
-9.7544097900 0.1687954813 0.2697025239
-9.7736778259 0.2066577226 0.2702574730
-9.7929258347 0.2395456880 0.2708124220
-9.8170108795 0.2744146883 0.2715061009
-9.8359756470 0.3092977405 0.2720610201
-9.8548164368 0.3443165720 0.2726159692
-9.8685388565 0.3792814612 0.2730321884
-9.8871288300 0.4145529568 0.2735871375
-9.9006013870 0.4497373998 0.2740033567
-9.9189395905 0.4852598310 0.2745582759
-9.9321594238 0.5206568241 0.2749744952
-9.9502429962 0.5564283729 0.2755294144
-9.9632091522 0.5920386910 0.2759456336
-9.9810352325 0.6280602217 0.2765005827
-9.9937429428 0.6638820171 0.2769167721
-10.0063238144 0.6998002529 0.2773329914
-10.0187749863 0.7358143926 0.2777492106
-10.0360794067 0.7723047733 0.2783041596
-10.0482692719 0.8085293174 0.2787203789
-10.0653076172 0.8452613354 0.2792752981
-10.0772342682 0.8816891909 0.2796915174
-10.0940055847 0.9186608791 0.2802464366
-10.1056661606 0.9552927017 0.2806626558
-10.1171941757 0.9920197725 0.2810788751
-10.1284074783 1.0306029320 0.2814950645
-10.1392879486 1.0710531473 0.2819112837
-10.1505880356 1.1062875986 0.2823275030
-10.1615648270 1.1433812380 0.2827436924
-10.1773719788 1.1811386347 0.2832986414
-10.1880760193 1.2184292078 0.2837148309
-10.1986436844 1.2558118105 0.2841310501
-10.2041158676 1.2926546335 0.2844085395
-10.2144107819 1.3301937580 0.2848247290
-10.2196140289 1.3671604395 0.2851021886
-10.2296352386 1.4048570395 0.2855184078
-10.2345685959 1.4419481754 0.2857958972
-10.2443132401 1.4798001051 0.2862120867
-10.2539196014 1.5177377462 0.2866283059
-10.2584438324 1.5550138950 0.2869057953
-10.2677707672 1.5931037664 0.2873219848
-10.2769575119 1.6312805414 0.2877382040
-10.2810688019 1.6687399149 0.2880156636
-10.2899742126 1.7070630789 0.2884318531
-10.2935037613 1.7464344501 0.2887093425
-10.2968845367 1.7858520746 0.2889868021
-10.3004322052 1.8235210180 0.2892642915
-10.2989215851 1.8603531122 0.2894030213
-10.3021974564 1.8980973959 0.2896804810
-10.3053340912 1.9358872175 0.2899579704
-10.3083333969 1.9737221003 0.2902354300
-10.3062868118 2.0106468201 0.2903741896
-10.3139133453 2.0495274067 0.2907903790
-10.3213939667 2.0884828568 0.2912065983
-10.3042497635 2.1224863529 0.2909291089
-11.7567319870 2.5495102406 0.3328273594
-11.7233543396 2.5851619244 0.3321336508
-11.6996269226 2.6227943897 0.3317174613
-6.1344099045 1.4003072977 0.1735585630
-6.1538333893 1.4273374081 0.1742522418
-6.2023377419 1.4613748789 0.1757783443
-6.2895727158 1.5050394535 0.1784143299
-11.5792055130 2.8089399338 0.3296364248
-11.5402078629 2.8421828747 0.3288039863
-11.5156688690 2.8788177967 0.3283877969
-11.4861679077 2.9140923023 0.3278328478
-11.4468812943 2.9467053413 0.3270004392
-11.4123430252 2.9803400040 0.3263067603
-11.3680467606 3.0112147331 0.3253355920
-11.3622941971 3.0521721840 0.3254743516
-11.3467473984 3.0905065536 0.3253355920
-11.3257083893 3.1294143200 0.3250581622
-11.3039827347 3.1701838970 0.3247806728
-11.2789812088 3.2035620213 0.3243644536
-11.2533197403 3.2387726307 0.3239482641
-11.2275485992 3.2738428116 0.3235320449
-11.1968765259 3.3073589802 0.3229770958
-11.1708965302 3.3421344757 0.3225609064
-11.1495943069 3.3782129288 0.3222834170
-11.1281757355 3.4141836166 0.3220059276
-6.9630036354 2.1649975777 0.2013057321
-6.9601726532 2.1907866001 0.2014444768
-11.0632333755 3.5214469433 0.3211735487
-11.0270843506 3.5523908138 0.3204798698
-10.9956064224 3.5846724510 0.3199249208
-10.9735317230 3.6199045181 0.3196474314
-10.9703130722 3.6613469124 0.3199249208
-7.4668989182 2.5228800774 0.2176765800
-7.5290055275 2.5731263161 0.2197576016
-10.8699464798 3.7548403740 0.3181213439
-10.8426160812 3.7878215313 0.3177051246
-10.8151874542 3.8206574917 0.3172889054
-10.7970762253 3.8567094803 0.3171501756
-10.7734670639 3.8928630352 0.3168727160
-10.7497358322 3.9288976192 0.3165952563
-10.7265768051 3.9629366398 0.3163177669
-10.7033128738 3.9968621731 0.3160403073
-10.6799421310 4.0306739807 0.3157628477
-10.6564655304 4.0643734932 0.3154853582
-10.6282196045 4.0961604118 0.3150691390
-10.6045398712 4.1296110153 0.3147916794
-10.5761051178 4.1611194611 0.3143754900
-10.5522251129 4.1943230629 0.3140980005
-10.5236015320 4.2255530357 0.3136817813
-10.4995231628 4.2585086823 0.3134043217
-10.4753427505 4.2913470268 0.3131268620
-10.4510602951 4.3240685463 0.3128493726
-10.4266777039 4.3566732407 0.3125719130
-10.4067993164 4.3911037445 0.3124331534
-10.3822116852 4.4234895706 0.3121556938
-10.3621149063 4.4577298164 0.3120169640
-10.3373212814 4.4898943901 0.3117395043
-10.3124284744 4.5219407082 0.3114620149
-10.2874383926 4.5538706779 0.3111845553
-10.2669162750 4.5877151489 0.3110458255
-10.2417249680 4.6194195747 0.3107683361
-10.2164382935 4.6510033607 0.3104908764
-10.1910562515 4.6824674606 0.3102133870
-10.1701135635 4.7159142494 0.3100746870
-10.1437053680 4.7489223480 0.3097971976
-10.1208772659 4.7857022285 0.3096584678
-10.0967655182 4.8131780624 0.3093809783
-10.0700483322 4.8458204269 0.3091034889
-10.0485744476 4.8787608147 0.3089647591
-10.0225038528 4.9094166756 0.3086872995
-10.0008239746 4.9421591759 0.3085485697
-9.9790372849 4.9748096466 0.3084098399
-9.9526786804 5.0051255226 0.3081323504
-9.9306888580 5.0375766754 0.3079936206
-9.9085922241 5.0699381828 0.3078548908
-9.8863925934 5.1022047997 0.3077161610
-9.8640880585 5.1343774796 0.3075774312
-9.8416795731 5.1664566994 0.3074386716
-9.8191671371 5.1984419823 0.3072999418
-9.7965497971 5.2303357124 0.3071612120
-9.7694292068 5.2597651482 0.3068837225
-9.7466163635 5.2914514542 0.3067449927
-9.7237014771 5.3230433464 0.3066062927
-9.7006855011 5.3545393944 0.3064675331
-9.6775655746 5.3859419823 0.3063288033
-9.6543464661 5.4172458649 0.3061900735
-9.6310262680 5.4484534264 0.3060513139
-9.6076068878 5.4795641899 0.3059125841
-9.5840873718 5.5105776787 0.3057738543
-9.5604667664 5.5414967537 0.3056350946
-9.5348043442 5.5756421089 0.3054963946
-9.5109758377 5.6063570976 0.3053576648
-9.4913482666 5.6395220757 0.3053576648
-9.4673156738 5.6700520515 0.3052189052
-9.4474658966 5.7030639648 0.3052189052
-9.4275016785 5.7360067368 0.3052189052
-9.4159450531 5.7741031647 0.3054963946
-9.3829736710 5.7990584373 0.3050801754
-9.3754053116 5.8396968842 0.3054963946
-0.9241889715 0.5858227611 0.0292732678
-0.9348139167 0.5970551372 0.0296894740
-0.9285082221 0.5976300240 0.0295507386
-0.9264164567 0.6008674502 0.0295507386
-0.9243134260 0.6040975451 0.0295507386
-0.9221991301 0.6073203087 0.0295507386
-0.9200735688 0.6105356216 0.0295507386
-0.9179366827 0.6137437224 0.0295507386
-0.9157887697 0.6169441342 0.0295507386
-0.9136297107 0.6201370358 0.0295507386
-0.9114594460 0.6233223677 0.0295507386
-0.9092781544 0.6265001297 0.0295507386
-0.9070855975 0.6296704412 0.0295507386
-0.9048821330 0.6328328848 0.0295507386
-0.8985679746 0.6331287026 0.0294120032
-0.8963525295 0.6362614036 0.0294120032
-0.8941261172 0.6393863559 0.0294120032
-0.8917765617 0.6426592469 0.0294120032
-0.8894150257 0.6459235549 0.0294120032
-0.8871549368 0.6490242481 0.0294120032
-0.8848840594 0.6521170139 0.0294120032
-0.8826023936 0.6552017927 0.0294120032
-0.8803099990 0.6582785845 0.0294120032
-0.8780066371 0.6613476276 0.0294120032
-0.8796891570 0.6674100161 0.0295507386
-0.8773541451 0.6704766154 0.0295507386
-0.8750084043 0.6735349894 0.0295507386
-0.8726520538 0.6765851974 0.0295507386
-0.8663308024 0.6765702367 0.0294120032
-0.8639639020 0.6795901060 0.0294120032
-0.8615864515 0.6826017499 0.0294120032
-0.8591985106 0.6856050491 0.0294120032
-0.8568001390 0.6886000037 0.0294120032
-0.8543910980 0.6915867329 0.0294120032
-0.8519718647 0.6945648789 0.0294120032
-0.8495422006 0.6975345612 0.0294120032
-0.8471022248 0.7004957199 0.0294120032
-0.8446518779 0.7034483552 0.0294120032
-0.8421911001 0.7063925862 0.0294120032
-0.8394727111 0.7096209526 0.0294120032
-0.8369904160 0.7125471234 0.0294120032
-0.8383082747 0.7186990976 0.0295507386
-0.8357945085 0.7216209173 0.0295507386
-0.8332704902 0.7245339155 0.0295507386
-0.8307363987 0.7274381518 0.0295507386
-0.8281919360 0.7303336859 0.0295507386
-0.8256375790 0.7332201004 0.0295507386
-0.8230731487 0.7360976338 0.0295507386
-0.8242287636 0.7422930002 0.0296894740
-0.8216326833 0.7451655269 0.0296894740
-0.8227331042 0.7513819337 0.0298282094
-0.8201053143 0.7542492151 0.0298282094
-0.8174675107 0.7571072578 0.0298282094
-0.8148198128 0.7599561214 0.0298282094
-0.8121621013 0.7627956867 0.0298282094
-0.8094943762 0.7656261921 0.0298282094
-0.8031812906 0.7650174499 0.0296894740
-0.8005059958 0.7678163648 0.0296894740
-0.7978209853 0.7706059813 0.0296894740
-0.7951262593 0.7733861208 0.0296894740
-0.7924216390 0.7761570811 0.0296894740
-0.7897075415 0.7789183855 0.0296894740
-0.7869838476 0.7816702127 0.0296894740
-0.7842505574 0.7844125032 0.0296894740
-0.7815077305 0.7871451974 0.0296894740
-0.7787551284 0.7898685336 0.0296894740
-0.7759932876 0.7925820351 0.0296894740
-0.7732219696 0.7952859402 0.0296894740
-0.7703018188 0.7981146574 0.0296894740
-0.7708466053 0.8045247793 0.0298282094
-0.7680336237 0.8072105646 0.0298282094
-0.7652111053 0.8098867536 0.0298282094
-0.7623794675 0.8125528693 0.0298282094
-0.7629631162 0.8188495040 0.0299669467
-0.7601001859 0.8215077519 0.0299669467
-0.7606270909 0.8278201818 0.0301056821
-0.7577326298 0.8304703832 0.0301056821
-0.7548291683 0.8331102729 0.0301056821
-0.7552771568 0.8394397497 0.0302444212
-0.7523424029 0.8420710564 0.0302444212
-0.7493984699 0.8446920514 0.0302444212
-0.7464452386 0.8473029137 0.0302444212
-0.7401744723 0.8461570144 0.0301056821
-0.7372163534 0.8487354517 0.0301056821
-0.7342492342 0.8513036370 0.0301056821
-0.7312732339 0.8538614511 0.0301056821
-0.7282880545 0.8564090133 0.0301056821
-0.7285369635 0.8627493978 0.0302444212
-0.7255210280 0.8652871847 0.0302444212
-0.7257122993 0.8716403842 0.0303831566
-0.7226653099 0.8741682172 0.0303831566
-0.7196093202 0.8766856194 0.0303831566
-0.7197205424 0.8830515742 0.0305218920
-0.7166337967 0.8855584264 0.0305218920
-0.7135382891 0.8880545497 0.0305218920
-0.7104340792 0.8905397654 0.0305218920
-0.7104426622 0.8969177604 0.0306606274
-0.7073075175 0.8993921876 0.0306606274
-0.7041637897 0.9018555880 0.0306606274
-0.7010114789 0.9043080807 0.0306606274
-0.6978506446 0.9067494869 0.0306606274
-0.6975747943 0.9132590294 0.0307993628
-0.6942226887 0.9158097506 0.0307993628
-0.6910217404 0.9182273746 0.0307993628
-0.6878123879 0.9206339121 0.0307993628
-0.6845946312 0.9230291843 0.0307993628
-0.6813685298 0.9254131913 0.0307993628
-0.6781339049 0.9277861118 0.0307993628
-0.6748912334 0.9301475286 0.0307993628
-0.6716403365 0.9324976206 0.0307993628
-0.6683812737 0.9348363876 0.0307993628
-0.6680256724 0.9412261844 0.0309381001
-0.6647359133 0.9435524344 0.0309381001
-0.6643214822 0.9499496222 0.0310768355
-0.6610015631 0.9522626996 0.0310768355
-0.6605281830 0.9586668611 0.0312155709
-0.6571778059 0.9609667063 0.0312155709
-0.6566451192 0.9673774242 0.0313543081
-0.6532644033 0.9696636200 0.0313543081
-0.6498757005 0.9719380140 0.0313543081
-0.6492617130 0.9783524275 0.0314930417
-0.6458426714 0.9806127548 0.0314930417
-0.6451691389 0.9870325327 0.0316317789
-0.6417198777 0.9892785549 0.0316317789
-0.6409870982 0.9957028031 0.0317705125
-0.6375076175 0.9979341626 0.0317705125
-0.6340203285 1.0001534224 0.0317705125
-0.6305250525 1.0023605824 0.0317705125
-0.6270223856 1.0045553446 0.0317705125
-0.6235120893 1.0067379475 0.0317705125
-0.6226301193 1.0131546259 0.0319092497
-0.6190898418 1.0153218508 0.0319092497
-0.6155416965 1.0174767971 0.0319092497
-0.6145777106 1.0238929987 0.0320479870
-0.6110000014 1.0260320902 0.0320479870
-0.6099762321 1.0324503183 0.0321867205
-0.6063686609 1.0345731974 0.0321867205
-0.6052848697 1.0409932137 0.0323254578
-0.6016474962 1.0430997610 0.0323254578
-0.5980027914 1.0451934338 0.0323254578
-0.5941681266 1.0473781824 0.0323254578
-0.5927946568 1.0538942814 0.0324641913
-0.5891123414 1.0559570789 0.0324641913
-0.5829837322 1.0536445379 0.0323254578
-0.5793020129 1.0556732416 0.0323254578
-0.5780221820 1.0620683432 0.0324641913
-0.5743113756 1.0640795231 0.0324641913
-0.5705935955 1.0660777092 0.0324641913
-0.5692315102 1.0724673271 0.0326029286
-0.5654842257 1.0744478703 0.0326029286
-0.5640621185 1.0808360577 0.0327416621
-0.5626022816 1.0872272253 0.0328803994
-0.5611046553 1.0936213732 0.0330191366
-0.5572838187 1.0955733061 0.0330191366
-0.5534559488 1.0975120068 0.0330191366
-0.5473672748 1.0949764252 0.0328803994
-0.6175183654 1.2554466724 0.0377361588
-0.6043024063 1.2396577597 0.0371812098
-0.5890123248 1.2193005085 0.0364875309
-0.6043375731 1.2618443966 0.0377361588
-0.3633021414 0.7842473388 0.0228914190
-0.3457707465 0.7538048029 0.0219202656
-0.3389429450 0.7459335923 0.0216427948
-0.3404999077 0.7562003136 0.0219202656
-0.3357927203 0.7528329492 0.0217815302
-0.3331628144 0.7540004849 0.0217815302
-0.3284949958 0.7505933046 0.0216427948
-0.3238552213 0.7471626997 0.0215040594
-0.3212451935 0.7482885718 0.0215040594
-0.3166455030 0.7448186874 0.0213653240
-0.3120739460 0.7413258553 0.0212265886
-0.3075304925 0.7378103733 0.0210878514
-0.3030155897 0.7342721224 0.0209491160
-0.2985291481 0.7307114601 0.0208103806
-0.2921658456 0.7225077748 0.0205329098
-0.2877527773 0.7188959718 0.0203941725
-0.2833683491 0.7152622342 0.0202554353
-0.2790130079 0.7116067410 0.0201166999
-0.2746866345 0.7079295516 0.0199779645
-0.2703893781 0.7042309046 0.0198392291
-0.2661212981 0.7005109191 0.0197004937
-0.2617608011 0.6968154907 0.0195617564
-0.2574309409 0.6930976510 0.0194230210
-0.2534930110 0.6892247200 0.0192842856
-0.2493426502 0.6854211092 0.0191455502
-0.2452219427 0.6815969348 0.0190068148
-0.2410126179 0.6777945161 0.0188680794
-0.2368344516 0.6739704609 0.0187293421
-0.2344804555 0.6747930050 0.0187293421
-0.2306984514 0.6708122492 0.0185906049
-0.2265944630 0.6669332385 0.0184518695
-0.2224063873 0.6630720496 0.0183131341
-0.2204380780 0.6637290716 0.0183131341
-0.2165248990 0.6597577333 0.0181743987
-0.2125276029 0.6558043957 0.0180356633
-0.2085623890 0.6518306136 0.0178969260
-0.2047421783 0.6478009224 0.0177581906
-0.2024795413 0.6485117078 0.0177581906
-0.1987041831 0.6444501281 0.0176194552
-0.1964534521 0.6451398134 0.0176194552
-0.1927231997 0.6410468221 0.0174807198
-0.1904843897 0.6417156458 0.0174807198
-0.1867993176 0.6375916600 0.0173419844
-0.1845726073 0.6382398009 0.0173419844
-0.1809333116 0.6340852380 0.0172032472
-0.1773253083 0.6299130917 0.0170645118
-0.1737486273 0.6257235408 0.0169257764
-0.1702031940 0.6215167046 0.0167870391
-0.1680327058 0.6221070290 0.0167870391
-0.1645337194 0.6178709269 0.0166483037
-0.1610663831 0.6136180758 0.0165095683
-0.1589235067 0.6141765118 0.0165095683
-0.1567785293 0.6147275567 0.0165095683
-0.1546318233 0.6152710915 0.0165095683
-0.1512410790 0.6109658480 0.0163708311
-0.1491075307 0.6114900112 0.0163708311
-0.1457636952 0.6071569920 0.0162320957
-0.1436436027 0.6076620817 0.0162320957
-0.1403470784 0.6033016443 0.0160933603
-0.1370830387 0.5989256501 0.0159546249
-0.1349914521 0.5994005203 0.0159546249
-0.1317747384 0.5949979424 0.0158158895
-0.1296971738 0.5954542756 0.0158158895
-0.1265283078 0.5910254717 0.0156771541
-0.1244646385 0.5914635062 0.0156771541
-0.1213438213 0.5870090127 0.0155384177
-0.1192939132 0.5874290466 0.0155384177
-0.1162216067 0.5829492211 0.0153996814
-0.1141859293 0.5833513737 0.0153996814
-0.1111620665 0.5788467526 0.0152609460
-0.1091407388 0.5792312622 0.0152609460
-0.1061652303 0.5747023225 0.0151222106
-0.1032229662 0.5701596141 0.0149834733
-0.1012320071 0.5705164671 0.0149834733
-0.0983386859 0.5659502149 0.0148447370
-0.0963624492 0.5662900805 0.0148447370
-0.0943850204 0.5666229725 0.0148447370
-0.0915568620 0.5620236993 0.0147060016
-0.0895943791 0.5623399019 0.0147060016
-0.0876310617 0.5626491904 0.0147060016
-0.0856664181 0.5629516244 0.0147060016
-0.0837007090 0.5632472634 0.0147060016
-0.0817342550 0.5635359883 0.0147060016
-0.0790200233 0.5588758588 0.0145672653
-0.0770688578 0.5591482520 0.0145672653
-0.0744044930 0.5544667840 0.0144285299
-0.0724684745 0.5547231436 0.0144285299
-0.0698543936 0.5500207543 0.0142897945
-0.0679339394 0.5502612591 0.0142897945
-0.0660129115 0.5504950285 0.0142897945
-0.0640908256 0.5507221222 0.0142897945
-0.0621679388 0.5509424806 0.0142897945
-0.0596536398 0.5461931229 0.0141510582
-0.0577466115 0.5463980436 0.0141510582
-0.0547266006 0.5366622210 0.0138735874
-0.0533917919 0.5418189168 0.0140123228
-0.0509784780 0.5370312333 0.0138735874
0.1256477386 0.5553970933 0.0147060016
0.1565868855 0.6867499948 0.0184518695
0.1600740701 0.6910768151 0.0185906049
0.1702427119 0.7246295810 0.0195617564
0.1716460884 0.7191610932 0.0194230210
0.1741551608 0.7185575962 0.0194230210
0.1755033284 0.7130834460 0.0192842856
0.1779911816 0.7124665380 0.0192842856
0.1804772019 0.7118408680 0.0192842856
0.1829610467 0.7112064958 0.0192842856
0.1854422987 0.7105636001 0.0192842856
0.1879216284 0.7099118829 0.0192842856
0.1903983206 0.7092516422 0.0192842856
0.1928730458 0.7085826993 0.0192842856
0.1953454465 0.7079050541 0.0192842856
0.1978150904 0.7072189450 0.0192842856
0.2002826780 0.7065240741 0.0192842856
0.2027474791 0.7058207393 0.0192842856
0.2052101493 0.7051087022 0.0192842856
0.2076703310 0.7043880224 0.0192842856
0.2101276368 0.7036588788 0.0192842856
0.2125827223 0.7029210925 0.0192842856
0.2136061490 0.6973853111 0.0191455502
0.2160393000 0.6966353655 0.0191455502
0.2184698433 0.6958769560 0.0191455502
0.2208973765 0.6951102018 0.0191455502
0.2233225405 0.6943348050 0.0191455502
0.2257446647 0.6935511231 0.0191455502
0.2266356349 0.6880003214 0.0190068148
0.2290359735 0.6872049570 0.0190068148
0.2314331681 0.6864013672 0.0190068148
0.2335886806 0.6856708527 0.0190068148
0.2343871295 0.6801140308 0.0188680794
0.2367598861 0.6792917252 0.0188680794
0.2391294092 0.6784611940 0.0188680794
0.2399710268 0.6728600264 0.0187293421
0.2425528616 0.6719336510 0.0187293421
0.2447794378 0.6711257100 0.0187293421
0.2471207380 0.6702671647 0.0187293421
0.2494590431 0.6694003940 0.0187293421
0.2515607178 0.6686134338 0.0187293421
0.2538931966 0.6677312255 0.0187293421
0.2544645369 0.6621621251 0.0185906049
0.2567745149 0.6612697840 0.0185906049
0.2590810061 0.6603695154 0.0185906049
0.2613846660 0.6594610810 0.0185906049
0.2618623078 0.6538907886 0.0184518695
0.2641429901 0.6529728174 0.0184518695
0.2664208412 0.6520467401 0.0184518695
0.2686950862 0.6511129141 0.0184518695
0.2709663808 0.6501709223 0.0184518695
0.2732343972 0.6492210627 0.0184518695
0.2754987180 0.6482634544 0.0184518695
0.2777600288 0.6472977400 0.0184518695
0.2800176442 0.6463243365 0.0184518695
0.2822721601 0.6453428864 0.0184518695
0.2845232487 0.6443536282 0.0184518695
0.2867705226 0.6433566213 0.0184518695
0.2890146375 0.6423516273 0.0184518695
0.2912549078 0.6413389444 0.0184518695
0.2934919596 0.6403182745 0.0184518695
0.2957254350 0.6392898560 0.0184518695
0.2958751619 0.6337090135 0.0183131341
0.2980855405 0.6326722503 0.0183131341
0.2981804907 0.6270978451 0.0181743987
0.3003677726 0.6260530949 0.0181743987
0.3025514185 0.6250007749 0.0181743987
0.3047310114 0.6239409447 0.0181743987
0.3069072664 0.6228733659 0.0181743987
0.3090794384 0.6217983365 0.0181743987
0.3112481534 0.6207156181 0.0181743987
0.3134130836 0.6196253300 0.0181743987
0.3155738711 0.6185275912 0.0181743987
0.3177311718 0.6174222231 0.0181743987
0.3198842406 0.6163094640 0.0181743987
0.3220337331 0.6151890755 0.0181743987
0.3241793215 0.6140611172 0.0181743987
0.3263206184 0.6129258871 0.0181743987
0.3284582794 0.6117830276 0.0181743987
0.3305916190 0.6106328368 0.0181743987
0.3303601444 0.6050698757 0.0180356633
0.3324703574 0.6039129496 0.0180356633
0.3345761895 0.6027488112 0.0180356633
0.3366782665 0.6015771627 0.0180356633
0.3387759328 0.6003984213 0.0180356633
0.3433073461 0.6035754681 0.0181743987
0.3454122543 0.6023733616 0.0181743987
0.3475126326 0.6011641026 0.0181743987
0.3496091068 0.5999473333 0.0181743987
0.3492027223 0.5943945050 0.0180356633
0.3487621546 0.5888517499 0.0178969260
0.3482871950 0.5833193064 0.0177581906
0.3477775753 0.5777976513 0.0176194552
0.3497924805 0.5765800476 0.0176194552
0.3492293656 0.5710710287 0.0174807198
0.3510219157 0.5699709058 0.0174807198
0.3528107405 0.5688654184 0.0174807198
0.3549924195 0.5675064921 0.0174807198
0.3569710553 0.5662639737 0.0174807198
0.3589456081 0.5650144219 0.0174807198
0.3635769486 0.5679886937 0.0176194552
0.3655572236 0.5667161942 0.0176194552
0.3675333261 0.5654366612 0.0176194552
0.3722099662 0.5683529973 0.0177581906
0.3741917014 0.5670502186 0.0177581906
0.3734343648 0.5615568757 0.0176194552
0.3781412542 0.5644240975 0.0177581906
0.3801092803 0.5631006360 0.0177581906
0.3820723891 0.5617704988 0.0177581906
0.3812384009 0.5562882423 0.0176194552
0.3831779957 0.5549539924 0.0176194552
0.3822910488 0.5494877696 0.0174807198
0.3842069209 0.5481498837 0.0174807198
0.3861178160 0.5468055010 0.0174807198
0.3880242705 0.5454543233 0.0174807198
0.3899260163 0.5440964699 0.0174807198
0.3947158754 0.5468077660 0.0176194552
0.3966223001 0.5454265475 0.0176194552
0.3985236287 0.5440388322 0.0176194552
0.4004203379 0.5426443219 0.0176194552
0.4023121893 0.5412432551 0.0176194552
0.4041988552 0.5398357511 0.0176194552
0.4060809016 0.5384214520 0.0176194552
0.4079577029 0.5370007753 0.0176194552
0.4098297954 0.5355734229 0.0176194552
0.4116969109 0.5341394544 0.0176194552
0.4135587215 0.5326992869 0.0176194552
0.4154157937 0.5312523246 0.0176194552
0.4172675312 0.5297991633 0.0176194552
0.4191144407 0.5283393264 0.0176194552
0.4209562242 0.5268730521 0.0176194552
0.4227926433 0.5254005194 0.0176194552
0.4246241450 0.5239214301 0.0176194552
0.4264502525 0.5224361420 0.0176194552
0.4282713830 0.5209442973 0.0176194552
0.4300873280 0.5194460750 0.0176194552
0.4318977296 0.5179417729 0.0176194552
0.4337031841 0.5164309144 0.0176194552
0.4355030656 0.5149139762 0.0176194552
0.4372978806 0.5133906007 0.0176194552
0.4390873909 0.5118609071 0.0176194552
0.4408712983 0.5103252530 0.0176194552
0.4426500797 0.5087831020 0.0176194552
0.4444232285 0.5072349906 0.0176194552
0.4461911917 0.5056805015 0.0176194552
0.4477775693 0.5042762756 0.0176194552
0.4495351911 0.5027101040 0.0176194552
0.4512870908 0.5011379719 0.0176194552
0.4530337453 0.4995595813 0.0176194552
0.4547748566 0.4979750514 0.0176194552
0.4598642588 0.5000902414 0.0177581906
0.4616072178 0.4984818697 0.0177581906
0.4633442760 0.4968676269 0.0177581906
0.4650759399 0.4952471554 0.0177581906
0.4668019414 0.4936206341 0.0177581906
0.4685220122 0.4919883311 0.0177581906
0.4702366292 0.4903497696 0.0177581906
0.4719452560 0.4887054861 0.0177581906
0.4771046042 0.4906654656 0.0178969260
0.4788145423 0.4889969528 0.0178969260
0.4805183709 0.4873227477 0.0178969260
0.4822166264 0.4856423736 0.0178969260
0.4804024696 0.4803944826 0.0177581906
0.4785577953 0.4751649797 0.0176194552
0.4802136123 0.4734915197 0.0176194552
0.4783199131 0.4682876170 0.0174807198
0.4799517393 0.4666150212 0.0174807198
0.4815774560 0.4649369717 0.0174807198
0.4867776930 0.4667406380 0.0176194552
0.4884040356 0.4650385082 0.0176194552
0.4900242090 0.4633309841 0.0176194552
0.4952551126 0.4650674760 0.0177581906
0.4968753457 0.4633360207 0.0177581906
0.5021302104 0.4650233090 0.0178969260
0.5035885572 0.4634435773 0.0178969260
0.5052033067 0.4616827965 0.0178969260
0.5068116784 0.4599166512 0.0178969260
0.5084140897 0.4581446350 0.0178969260
0.5100103021 0.4563670456 0.0178969260
0.5116000772 0.4545841515 0.0178969260
0.5131838322 0.4527954757 0.0178969260
0.5147611499 0.4510014951 0.0178969260
0.5200774670 0.4525116682 0.0180356633
0.5216539502 0.4506933987 0.0180356633
0.5232238173 0.4488699138 0.0180356633
0.5247876048 0.4470406771 0.0180356633
0.5263447165 0.4452062547 0.0180356633
0.5278956294 0.4433661401 0.0180356633
0.5294401646 0.4415206313 0.0180356633
0.5271531940 0.4364526570 0.0178969260
0.5286735892 0.4346097708 0.0178969260
0.5340344906 0.4359524548 0.0180356633
0.5355530381 0.4340855777 0.0180356633
0.5370651484 0.4322133958 0.0180356633
0.5385704041 0.4303362072 0.0180356633
0.5400694013 0.4284535348 0.0180356633
0.5415615439 0.4265658855 0.0180356633
0.5430473089 0.4246727824 0.0180356633
0.5445265174 0.4227744937 0.0180356633
0.5499335527 0.4239532650 0.0181743987
0.5514101982 0.4220309258 0.0181743987
0.5528798699 0.4201037288 0.0181743987
0.5543429852 0.4181711674 0.0181743987
0.5557994246 0.4162334800 0.0181743987
0.5572488308 0.4142910242 0.0181743987
0.5585475564 0.4125383794 0.0181743987
0.5599842668 0.4105860889 0.0181743987
0.5654323697 0.4116010070 0.0183131341
0.5668655634 0.4096249342 0.0183131341
0.5723309517 0.4105877578 0.0184518695
0.5737605691 0.4085876048 0.0184518695
0.5751833916 0.4065822065 0.0184518695
0.5765992403 0.4045718610 0.0184518695
0.5780078173 0.4025568366 0.0184518695
0.5794095397 0.4005366564 0.0184518695
0.5808040500 0.3985118866 0.0184518695
0.5821916461 0.3964819610 0.0184518695
0.5876916647 0.3972774148 0.0185906049
0.5890747309 0.3952237368 0.0185906049
0.5904508233 0.3931649625 0.0185906049
0.5959684849 0.3938886225 0.0187293421
0.5973398685 0.3918057978 0.0187293421
0.5987039804 0.3897181749 0.0187293421
0.6000605822 0.3876261115 0.0187293421
0.6014100909 0.3855290413 0.0187293421
0.6026182175 0.3836378455 0.0187293421
0.6039537787 0.3815318346 0.0187293421
0.6052817702 0.3794215024 0.0187293421
0.6066026092 0.3773062527 0.0187293421
0.6079159975 0.3751863837 0.0187293421
0.6134645939 0.3757041991 0.0188680794
0.6147723794 0.3735603690 0.0188680794
0.6160725355 0.3714123070 0.0188680794
0.6173653007 0.3692594469 0.0188680794
0.6186505556 0.3671020567 0.0188680794
0.6199281216 0.3649405241 0.0188680794
0.6211982965 0.3627742231 0.0188680794
0.6224607229 0.3606038094 0.0188680794
0.6237157583 0.3584286869 0.0188680794
0.6249631643 0.3562492132 0.0188680794
0.6218703985 0.3515734673 0.0187293421
0.6187528372 0.3469233513 0.0185906049
0.6199599504 0.3447615504 0.0185906049
0.6124432087 0.3377018273 0.0183131341
0.6136183143 0.3355618119 0.0183131341
0.6104106307 0.3310017884 0.0181743987
0.6071787477 0.3264679611 0.0180356633
0.6039225459 0.3219610453 0.0178969260
0.5830414295 0.3079994321 0.0172032472
0.6061556935 0.3177368343 0.0178969260
0.5940108299 0.3086006641 0.0174807198
0.6304833293 0.3251178563 0.0185906049
0.6493461132 0.3321497738 0.0191455502
0.6593835354 0.3344672620 0.0194230210
0.6649960876 0.3344410360 0.0195617564
0.6706162095 0.3343800306 0.0197004937
0.6716633439 0.3322716355 0.0197004937
0.6728191376 0.3299249411 0.0197004937
0.6739667654 0.3275742233 0.0197004937
0.6751059890 0.3252198696 0.0197004937
0.6717422605 0.3206756413 0.0195617564
0.6728574634 0.3183290660 0.0195617564
0.6694545746 0.3138242066 0.0194230210
0.6705459952 0.3114853203 0.0194230210
0.6716290712 0.3091430068 0.0194230210
0.6681718230 0.3046898246 0.0192842856
0.6692312360 0.3023557961 0.0192842856
0.6748296022 0.3020928204 0.0194230210
0.6758800149 0.2997352481 0.0194230210
0.6769220829 0.2973743677 0.0194230210
0.6779560447 0.2950095236 0.0194230210
0.6698306203 0.2886186838 0.0191455502
0.6616690755 0.2822879255 0.0188680794
0.6534715891 0.2760176361 0.0185906049
0.6452383995 0.2698084414 0.0183131341
0.6415731907 0.2656070888 0.0181743987
0.6424963474 0.2633661628 0.0181743987
0.6434118152 0.2611216903 0.0181743987
0.6443194151 0.2588740587 0.0181743987
0.6452190280 0.2566235662 0.0181743987
0.6461109519 0.2543696463 0.0181743987
0.6469948888 0.2521129251 0.0181743987
0.6478710175 0.2498528510 0.0181743987
0.6486527324 0.2478163540 0.0181743987
0.6495138407 0.2455504835 0.0181743987
0.6456993222 0.2414948642 0.0180356633
0.6465383768 0.2392393649 0.0180356633
0.6426895857 0.2352264971 0.0178969260
0.6388205290 0.2312437594 0.0177581906
0.6349317431 0.2272905856 0.0176194552
0.6357212067 0.2250730544 0.0176194552
0.6317989826 0.2211635560 0.0174807198
0.6278572083 0.2172841877 0.0173419844
0.6286118031 0.2150914371 0.0173419844
0.6246373653 0.2112561464 0.0172032472
0.6253709197 0.2090746462 0.0172032472
0.6213641167 0.2052837312 0.0170645118
0.6173385382 0.2015233338 0.0169257764
0.6132941842 0.1977938712 0.0167870391
0.6092315316 0.1940948218 0.0166483037
0.6051504612 0.1904268563 0.0165095683
0.6010513902 0.1867894828 0.0163708311
0.5969343781 0.1831830442 0.0162320957
0.5927994251 0.1796079725 0.0160933603
0.5934228301 0.1775374860 0.0160933603
0.5892578959 0.1740080267 0.0159546249
0.5898017287 0.1721557379 0.0159546249
0.5903990269 0.1700960845 0.0159546249
0.5909892321 0.1680340469 0.0159546249
0.5867717862 0.1645783484 0.0158158895
0.5873426795 0.1625290215 0.0158158895
0.5830965638 0.1591193527 0.0156771541
0.5788336992 0.1557416171 0.0155384177
0.5793738365 0.1537200361 0.0155384177
0.5750829577 0.1503889561 0.0153996814
0.5756044388 0.1483805329 0.0153996814
0.5761188865 0.1463702619 0.0153996814
0.5717889667 0.1431012005 0.0152609460
0.5722849965 0.1411042958 0.0152609460
0.5679280162 0.1378824115 0.0151222106
0.5635555983 0.1346924156 0.0149834733
0.5640223622 0.1327243000 0.0149834733
0.5596236587 0.1295821518 0.0148447370
0.5600726008 0.1276278049 0.0148447370
0.5556480289 0.1245333925 0.0147060016
0.5560793877 0.1225929633 0.0147060016
0.5565039515 0.1206510216 0.0147060016
0.5569216609 0.1187079027 0.0147060016
0.5524505973 0.1156923324 0.0145672653
0.5528510809 0.1137633696 0.0145672653
0.5483554006 0.1107961759 0.0144285299
0.5487388372 0.1088812649 0.0144285299
0.5442190170 0.1059628800 0.0142897945
0.5445856452 0.1040624455 0.0142897945
0.5449455380 0.1021610051 0.0142897945
0.5452988148 0.1002580673 0.0142897945
0.5456454754 0.0983538926 0.0142897945
0.5410721898 0.0955319852 0.0141510582
0.5413696170 0.0938317329 0.0141510582
0.5466130972 0.0928255618 0.0142897945
0.5321669579 0.0883157030 0.0138735874
0.5328000188 0.0844125375 0.0138735874
0.5330625772 0.0827383325 0.0138735874
