-0.6296965480 1.2843035460 0.3734276295
-0.6230829954 1.2821582556 0.3721310198
-0.6141577363 1.2757471800 0.3695377707
-0.6073830724 1.2736386061 0.3682411611
-0.6008535624 1.2713929415 0.3669445217
-0.5943475366 1.2691171169 0.3656479120
-0.5858155489 1.2624388933 0.3630546629
-0.5793713927 1.2600963116 0.3617580533
-0.5709321499 1.2533373833 0.3591648042
-0.5645501018 1.2509289980 0.3578681648
-0.5562043190 1.2440904379 0.3552749157
-0.5479131341 1.2372089624 0.3526816666
-0.5396768451 1.2302849293 0.3500884473
-0.5314955711 1.2233184576 0.3474951684
-0.5252955556 1.2207382917 0.3461985290
-0.5172095895 1.2136948109 0.3436052799
-0.5110745430 1.2110513449 0.3423086703
-0.5030844808 1.2039319277 0.3397154212
-0.4951503873 1.1967715025 0.3371221721
-0.4872721434 1.1895706654 0.3345289230
-0.4776173830 1.1778618097 0.3306390643
-0.4662328362 1.1616264582 0.3254525661
-0.4549675584 1.1453262568 0.3202660978
-0.4438217878 1.1289615631 0.3150795698
-0.4327956438 1.1125334501 0.3098930717
-0.4271546900 1.1095386744 0.3085964620
-0.4215399325 1.1065180302 0.3072998226
-0.4176749587 1.1079827547 0.3072998226
-0.4138048887 1.1094338894 0.3072998226
-0.4082375765 1.1063488722 0.3060032129
-0.4043732584 1.1077671051 0.3060032129
-0.3988437057 1.1046372652 0.3047065735
-0.3933409750 1.1014825106 0.3034099638
-0.3878651261 1.0983027220 0.3021133244
-0.3824160099 1.0950983763 0.3008167148
-0.3769943118 1.0918692350 0.2995201051
-0.3715998232 1.0886156559 0.2982234657
-0.3662326634 1.0853378773 0.2969268560
-0.3608929217 1.0820357800 0.2956302166
-0.3555804491 1.0787099600 0.2943336070
-0.3502959013 1.0753600597 0.2930369675
-0.3450390697 1.0719865561 0.2917403579
-0.3398100734 1.0685894489 0.2904437482
-0.3346090317 1.0651689768 0.2891471088
-0.3279828429 1.0571202040 0.2865538597
-0.3228540421 1.0536483526 0.2852572501
-0.3177534938 1.0501537323 0.2839606106
-0.3126812875 1.0466363430 0.2826640010
-0.3076375127 1.0430961847 0.2813673317
-0.3026220500 1.0395339727 0.2800707221
-0.2976354659 1.0359493494 0.2787741125
-0.2926776409 1.0323425531 0.2774774730
-0.2877486050 1.0287139416 0.2761808634
-0.2828485072 1.0250635147 0.2748842239
-0.2792684138 1.0260447264 0.2748842239
-0.2744101882 1.0223556757 0.2735876143
-0.2695810795 1.0186452866 0.2722909749
-0.2647812665 1.0149137974 0.2709943652
-0.2600108087 1.0111612082 0.2696977556
-0.2540596128 1.0027128458 0.2671045065
-0.2493644506 0.9989144206 0.2658078671
-0.2458761036 0.9997787476 0.2658078671
-0.2412239015 0.9959436059 0.2645112574
-0.2377457470 0.9967795610 0.2645112574
-0.2331370711 0.9929080009 0.2632146180
-0.2285578549 0.9890165925 0.2619180083
-0.2240086347 0.9851053357 0.2606213987
-0.2194900215 0.9811742902 0.2593247592
-0.2150011063 0.9772239327 0.2580281496
-0.2105429322 0.9732540250 0.2567315102
-0.2061146349 0.9692651629 0.2554348707
-0.2017167509 0.9652572870 0.2541382611
-0.1983464211 0.9659554958 0.2541382611
-0.1939931512 0.9619135261 0.2528416216
-0.1906345487 0.9625847936 0.2528416216
-0.1863261163 0.9585092068 0.2515450120
-0.1829789579 0.9591538310 0.2515450120
-0.1787160933 0.9550449848 0.2502484024
-0.1744836867 0.9509181976 0.2489517629
-0.1702827513 0.9467734694 0.2476551384
-0.1669766754 0.9473621249 0.2476551384
-0.1628208756 0.9431852698 0.2463585287
-0.1586967707 0.9389909506 0.2450619042
-0.1554179341 0.9395392537 0.2450619042
-0.1513398290 0.9353134036 0.2437652797
-0.1472926587 0.9310706258 0.2424686551
-0.1432769597 0.9268110991 0.2411720306
-0.1392932534 0.9225348234 0.2398753911
-0.1353407204 0.9182422161 0.2385787666
-0.1321348995 0.9187089801 0.2385787666
-0.1289270371 0.9191646576 0.2385787666
-0.1257175654 0.9196091294 0.2385787666
-0.1218424886 0.9152593017 0.2372821420
-0.1186467260 0.9156790972 0.2372821420
-0.1154499575 0.9160876274 0.2372821420
-0.1122513339 0.9164850712 0.2372821420
-0.1084536314 0.9120795131 0.2359855324
-0.1046885177 0.9076586366 0.2346889079
-0.1009551510 0.9032226801 0.2333922833
-0.0972544774 0.8987717628 0.2320956588
-0.0941164196 0.8991057873 0.2320956588
-0.0904632062 0.8946273327 0.2307990342
-0.0868428722 0.8901343346 0.2295024097
-0.0837350264 0.8904320598 0.2295024097
-0.0801629126 0.8859122992 0.2282057852
-0.0770698488 0.8861867189 0.2282057852
-0.0739758238 0.8864503503 0.2282057852
-0.0708813444 0.8867031336 0.2282057852
-0.0673890561 0.8821325302 0.2269091606
-0.0643096864 0.8823623657 0.2269091606
-0.0608662032 0.8777661920 0.2256125510
-0.0574555732 0.8731568456 0.2243159264
-0.0544075929 0.8733520508 0.2243159264
-0.0510460623 0.8687177896 0.2230192870
-0.0480136164 0.8688906431 0.2230192870
-0.0447013527 0.8642320633 0.2217226624
-0.0416841619 0.8643828630 0.2217226624
-0.0384217501 0.8597003222 0.2204260379
-0.0354204401 0.8598292470 0.2204260379
-0.0322076343 0.8551233411 0.2191294134
-0.0290729292 0.8552356362 0.2191294134
-0.0257621575 0.8505107164 0.2178327888
-0.0226341523 0.8457691073 0.2165361643
-0.0198293198 0.8458395600 0.2165361643
-0.0168970190 0.8410733938 0.2152395546
-0.0138504663 0.8362995386 0.2139429301
-0.0109309740 0.8363428116 0.2139429301
-0.0079350797 0.8315474987 0.2126463056
-0.0050322325 0.8315701485 0.2126463056
-0.0020867412 0.8267539144 0.2113496810
0.0007993361 0.8267561197 0.2113496810
0.0036854250 0.8267483115 0.2113496810
0.0065634646 0.8219015002 0.2100530565
0.0094325505 0.8218735456 0.2100530565
0.0122598289 0.8170068860 0.2087564319
0.0151117938 0.8169590831 0.2087564319
0.0178885851 0.8120729327 0.2074597925
0.0207229014 0.8120055199 0.2074597925
0.0235573556 0.8119282722 0.2074597925
0.0263911318 0.8118410707 0.2074597925
0.0292249769 0.8117440343 0.2074597925
0.0320584886 0.8116370440 0.2074597925
0.0347150899 0.8066944480 0.2061631680
0.0375309177 0.8065683842 0.2061631680
0.0401361063 0.8016080856 0.2048665583
0.0427075140 0.7966394424 0.2035699338
0.0452447459 0.7916626930 0.2022733092
0.0477473550 0.7866780758 0.2009766847
0.0502160937 0.7816855907 0.1996800601
0.0526501946 0.7766855359 0.1983834356
0.0553611554 0.7764970660 0.1983834356
0.0577438623 0.7714812160 0.1970868111
0.0605709814 0.7712644339 0.1970868111
0.0629005358 0.7662329674 0.1957902014
0.0655749440 0.7660087347 0.1957902014
0.0679854602 0.7609505653 0.1944935769
0.0706413984 0.7607086301 0.1944935769
0.0731636435 0.7604702115 0.1944935769
0.0749254078 0.7505936027 0.1919003278
0.0786035806 0.7599271536 0.1944935769
0.0778923854 0.7260132432 0.1854172051
0.0829124004 0.7497533560 0.1919003278
0.0812930912 0.7110613585 0.1815273315
0.0793006495 0.6724026799 0.1711543351
0.0779438168 0.6385214925 0.1620779783
0.0790471956 0.6286534071 0.1594847292
0.1275265664 0.6009054184 0.1542982310
0.1394076943 0.6477444768 0.1672644615
0.1496274471 0.6850566864 0.1776374578
0.1570746899 0.7081394196 0.1841205806
0.1595457345 0.7075868249 0.1841205806
0.1630588472 0.7117402554 0.1854172051
0.1644816101 0.7064557672 0.1841205806
0.1658695191 0.7011700273 0.1828239560
0.1661285013 0.6911798716 0.1802307069
0.1685402840 0.6905956864 0.1802307069
0.1698232144 0.6853075027 0.1789340824
0.1722144783 0.6847105026 0.1789340824
0.1746036559 0.6841051579 0.1789340824
0.1781659573 0.6881752610 0.1802307069
0.1805671751 0.6875491142 0.1802307069
0.1841741204 0.6915900111 0.1815273315
0.1865872294 0.6909428835 0.1815273315
0.1889980882 0.6902872920 0.1815273315
0.1914062798 0.6896234155 0.1815273315
0.1950858980 0.6936090589 0.1828239560
0.1975056529 0.6929239631 0.1828239560
0.1999233365 0.6922302842 0.1828239560
0.2023385912 0.6915281415 0.1828239560
0.2047510445 0.6908176541 0.1828239560
0.2071613371 0.6900987029 0.1828239560
0.2095687687 0.6893714666 0.1828239560
0.2119739652 0.6886357069 0.1828239560
0.2143766135 0.6878915429 0.1828239560
0.2166562378 0.6871769428 0.1828239560
0.2204881459 0.6910274029 0.1841205806
0.2230193168 0.6902146935 0.1841205806
0.2253069580 0.6894713044 0.1841205806
0.2275921255 0.6887203455 0.1841205806
0.2284971029 0.6833308935 0.1828239560
0.2308807820 0.6825292110 0.1828239560
0.2332619727 0.6817190647 0.1828239560
0.2356403470 0.6809006333 0.1828239560
0.2380155027 0.6800740361 0.1828239560
0.2388103455 0.6746751070 0.1815273315
0.2411637455 0.6738374233 0.1815273315
0.2435145378 0.6729914546 0.1815273315
0.2458623797 0.6721373200 0.1815273315
0.2482068837 0.6712750196 0.1815273315
0.2505486906 0.6704044938 0.1815273315
0.2528871000 0.6695259213 0.1815273315
0.2552227676 0.6686390638 0.1815273315
0.2575553358 0.6677440405 0.1815273315
0.2581641376 0.6623288989 0.1802307069
0.2604746521 0.6614236236 0.1802307069
0.2627816498 0.6605104804 0.1802307069
0.2650857866 0.6595891118 0.1802307069
0.2673867047 0.6586596966 0.1802307069
0.2678852677 0.6532409787 0.1789340824
0.2701639831 0.6523019075 0.1789340824
0.2724390924 0.6513549089 0.1789340824
0.2747112215 0.6503999233 0.1789340824
0.2769800127 0.6494370103 0.1789340824
0.2792450786 0.6484662890 0.1789340824
0.2815070748 0.6474875212 0.1789340824
0.2837653160 0.6465010047 0.1789340824
0.2860204279 0.6455065012 0.1789340824
0.2882720530 0.6445041299 0.1789340824
0.2905198634 0.6434940100 0.1789340824
0.2927644253 0.6424759030 0.1789340824
0.2950051129 0.6414501667 0.1789340824
0.2972424924 0.6404164433 0.1789340824
0.2994762957 0.6393749118 0.1789340824
0.3017061353 0.6383257508 0.1789340824
0.3039325774 0.6372686028 0.1789340824
0.3061550260 0.6362038851 0.1789340824
0.3083740473 0.6351312995 0.1789340824
0.3105893135 0.6340509653 0.1789340824
0.3128004968 0.6329630017 0.1789340824
0.3150081635 0.6318672299 0.1789340824
0.3172116876 0.6307638884 0.1789340824
0.3172592521 0.6253299713 0.1776374578
0.3194402456 0.6242186427 0.1776374578
0.3216170371 0.6230999231 0.1776374578
0.3237902224 0.6219733953 0.1776374578
0.3258510232 0.6208962202 0.1776374578
0.3279082179 0.6198122501 0.1776374578
0.3300695717 0.6186639667 0.1776374578
0.3322272301 0.6175079346 0.1776374578
0.3343805373 0.6163446307 0.1776374578
0.3365300596 0.6151735783 0.1776374578
0.3386754990 0.6139950752 0.1776374578
0.3431317508 0.6170469522 0.1789340824
0.3452836871 0.6158453226 0.1789340824
0.3450863063 0.6104149818 0.1776374578
0.3448555171 0.6049934030 0.1763408333
0.3469653726 0.6037858725 0.1763408333
0.3466818035 0.5983744860 0.1750442237
0.3463649750 0.5929722786 0.1737475842
0.3460144401 0.5875798464 0.1724509597
0.3456307650 0.5821969509 0.1711543351
0.3476610482 0.5809868574 0.1711543351
0.3472250104 0.5756155252 0.1698577106
0.3492322862 0.5743999481 0.1698577106
0.3512350321 0.5731775165 0.1698577106
0.3532337546 0.5719478726 0.1698577106
0.3552281857 0.5707113147 0.1698577106
0.3597519100 0.5735787153 0.1711543351
0.3617519736 0.5723193884 0.1711543351
0.3637473583 0.5710532665 0.1711543351
0.3657386005 0.5697799921 0.1711543351
0.3677254021 0.5684997439 0.1711543351
0.3697074354 0.5672128201 0.1711543351
0.3716852367 0.5659187436 0.1711543351
0.3736582398 0.5646179914 0.1711543351
0.3756269515 0.5633102059 0.1711543351
0.3775911033 0.5619955063 0.1711543351
0.3795503676 0.5606741309 0.1711543351
0.3815052509 0.5593457818 0.1711543351
0.3834552467 0.5580107570 0.1711543351
0.3854008317 0.5566688180 0.1711543351
0.3846100867 0.5513379574 0.1698577106
0.3865320981 0.5499922037 0.1698577106
0.3884496689 0.5486395359 0.1698577106
0.3903622627 0.5472803712 0.1698577106
0.3950573504 0.5498578548 0.1711543351
0.3969744444 0.5484753847 0.1711543351
0.3988863826 0.5470864773 0.1711543351
0.4035258889 0.5496752858 0.1724509597
0.4054422677 0.5482633114 0.1724509597
0.4074489474 0.5467736721 0.1724509597
0.4093551636 0.5453479886 0.1724509597
0.4112561345 0.5439158678 0.1724509597
0.4101622403 0.5386844277 0.1711543351
0.4119463265 0.5373213291 0.1711543351
0.4139128625 0.5358079076 0.1711543351
0.4159671962 0.5342146158 0.1711543351
0.4175505042 0.5329779983 0.1711543351
0.4194082618 0.5315173268 0.1711543351
0.4212611318 0.5300500393 0.1711543351
0.4231089056 0.5285761952 0.1711543351
0.4249512553 0.5270962119 0.1711543351
0.4298033118 0.5293818712 0.1724509597
0.4316484332 0.5278785229 0.1724509597
0.4365294576 0.5301196575 0.1737475842
0.4444853961 0.5360737443 0.1763408333
0.4494208097 0.5382489562 0.1776374578
0.4543770552 0.5403959751 0.1789340824
0.4562604725 0.5388067365 0.1789340824
0.4612444937 0.5409082770 0.1802307069
0.4631299078 0.5392948389 0.1802307069
0.4650094211 0.5376750827 0.1802307069
0.4668835402 0.5360485315 0.1802307069
0.4687516987 0.5344156623 0.1802307069
0.4706144035 0.5327760577 0.1802307069
0.4724713862 0.5311300159 0.1802307069
0.4743223190 0.5294776559 0.1802307069
0.4761677682 0.5278186202 0.1802307069
0.4780071378 0.5261534452 0.1802307069
0.4766078591 0.5208946466 0.1789340824
0.4751777649 0.5156521201 0.1776374578
0.4737166464 0.5104261637 0.1763408333
0.4722250998 0.5052165389 0.1750442237
0.4707027376 0.5000237823 0.1737475842
0.4724453688 0.4983775616 0.1737475842
0.4740954638 0.4968081117 0.1737475842
0.4758268893 0.4951500893 0.1737475842
0.4775522351 0.4934862554 0.1737475842
0.4825290442 0.4953847229 0.1750442237
0.4842554331 0.4936972558 0.1750442237
0.4859756529 0.4920040369 0.1750442237
0.4876902103 0.4903045893 0.1750442237
0.4860072732 0.4851615727 0.1737475842
0.4876979291 0.4834620357 0.1737475842
0.4893826544 0.4817566276 0.1737475842
0.4910611808 0.4800455570 0.1737475842
0.4927339554 0.4783284366 0.1737475842
0.4944004714 0.4766056836 0.1737475842
0.4960612357 0.4748769104 0.1737475842
0.4977159202 0.4731423557 0.1737475842
0.4993643463 0.4714022577 0.1737475842
0.5010069013 0.4696561992 0.1737475842
0.5026431084 0.4679046273 0.1737475842
0.5042734146 0.4661471248 0.1737475842
0.5094298720 0.4676766992 0.1750442237
0.5110591650 0.4658957422 0.1750442237
0.5126823783 0.4641088843 0.1750442237
0.5142991543 0.4623166323 0.1750442237
0.5159099102 0.4605184495 0.1750442237
0.5175144076 0.4587146938 0.1750442237
0.5155118704 0.4536875188 0.1737475842
0.5170924664 0.4518851936 0.1737475842
0.5186665654 0.4500775933 0.1737475842
0.5202345252 0.4482642710 0.1737475842
0.5217961669 0.4464454949 0.1737475842
0.5232738256 0.4447126687 0.1737475842
0.5283337235 0.4462105036 0.1750442237
0.5299655199 0.4442711174 0.1750442237
0.5315132141 0.4424183965 0.1750442237
0.5330541730 0.4405605197 0.1750442237
0.5345888138 0.4386970401 0.1750442237
0.5398372412 0.4399069250 0.1763408333
0.5413693786 0.4380200207 0.1763408333
0.5466367602 0.4391801953 0.1776374578
0.5481663346 0.4372695684 0.1776374578
0.5496894121 0.4353533387 0.1776374578
0.5549792647 0.4364451468 0.1789340824
0.5564991832 0.4345054030 0.1789340824
0.5580126047 0.4325601161 0.1789340824
0.5595189929 0.4306098223 0.1789340824
0.5572036505 0.4256936312 0.1776374578
0.5586863160 0.4237459302 0.1776374578
0.5601619482 0.4217933118 0.1776374578
0.5616309643 0.4198353291 0.1776374578
0.5630928874 0.4178724587 0.1776374578
0.5684143901 0.4187975824 0.1789340824
0.5698728561 0.4168107808 0.1789340824
0.5752105117 0.4176854491 0.1802307069
0.5766651034 0.4156749249 0.1802307069
0.5780403614 0.4137603343 0.1802307069
0.5832518935 0.4147698581 0.1815273315
0.5847681761 0.4126294255 0.1815273315
0.5862050056 0.4105855823 0.1815273315
0.5876345634 0.4085370004 0.1815273315
0.5890570879 0.4064831734 0.1815273315
0.5904724598 0.4044243991 0.1815273315
0.5918805003 0.4023609757 0.1815273315
0.5932814479 0.4002923667 0.1815273315
0.5986675024 0.4009355009 0.1828239560
0.6000634432 0.3988432288 0.1828239560
0.6054635048 0.3994344771 0.1841205806
0.6068539619 0.3973187506 0.1841205806
0.6082372665 0.3951978981 0.1841205806
0.6136522293 0.3957188129 0.1854172051
0.6150298715 0.3935742378 0.1854172051
0.6164000630 0.3914248347 0.1854172051
0.6136956811 0.3866671920 0.1841205806
0.6150417328 0.3845224977 0.1841205806
0.6122952700 0.3797980845 0.1828239560
0.6136173606 0.3776583374 0.1828239560
0.6108291745 0.3729672134 0.1815273315
0.6121272445 0.3708329201 0.1815273315
0.6175385118 0.3712119162 0.1828239560
0.6188303828 0.3690541983 0.1828239560
0.6283907294 0.3718702495 0.1854172051
0.6337015629 0.3723705709 0.1867138147
0.5643739700 0.3283062279 0.1646712273
0.5281034708 0.3042168617 0.1530016065
0.5333340168 0.3048034608 0.1542982310
0.5176223516 0.2933606803 0.1491117328
0.6191623807 0.3492366672 0.1802307069
0.6203777194 0.3470731378 0.1802307069
0.6173803806 0.3425314724 0.1789340824
0.6101458669 0.3356551528 0.1763408333
0.5986494422 0.3264887333 0.1724509597
0.6547703147 0.3546879888 0.1893070638
0.6941439509 0.3732376397 0.2009766847
0.7081797719 0.3777139485 0.2048665583
0.6797176003 0.3592400551 0.1957902014
0.6852292418 0.3591358364 0.1970868111
0.6822089553 0.3544860780 0.1957902014
0.6834422350 0.3521024287 0.1957902014
0.6846670508 0.3497148454 0.1957902014
0.6858836412 0.3473226428 0.1957902014
0.6827912331 0.3427301645 0.1944935769
0.6839833260 0.3403448761 0.1944935769
0.6807926297 0.3359080851 0.1931969523
0.6819028258 0.3336486518 0.1931969523
0.6787331700 0.3291288614 0.1919003278
0.6755401492 0.3246356547 0.1906036884
0.6767255664 0.3221572638 0.1906036884
0.6734931469 0.3177022040 0.1893070638
0.6745980978 0.3153491914 0.1893070638
0.6713274717 0.3109320402 0.1880104393
0.6723548770 0.3087041080 0.1880104393
0.6690472960 0.3043242991 0.1867138147
0.6657172441 0.2999716401 0.1854172051
0.6623651385 0.2956456840 0.1841205806
0.6589909792 0.2913467884 0.1828239560
0.6511857510 0.2851058841 0.1802307069
0.6477611661 0.2808768749 0.1789340824
0.6443148255 0.2766755819 0.1776374578
0.6408473253 0.2725014687 0.1763408333
0.6462308168 0.2721704543 0.1776374578
0.6471768618 0.2699132264 0.1776374578
0.6525644660 0.2695291042 0.1789340824
0.6535012126 0.2672497928 0.1789340824
0.6588925123 0.2668125033 0.1802307069
0.6598199010 0.2645107806 0.1802307069
0.6562640071 0.2603917420 0.1789340824
0.6571689844 0.2580992281 0.1789340824
0.6535782218 0.2540207803 0.1776374578
0.6499670744 0.2499702275 0.1763408333
0.6507924795 0.2478134632 0.1763408333
0.6471052170 0.2439163476 0.1750442237
0.6479526162 0.2416562289 0.1750442237
0.6442747116 0.2376866937 0.1737475842
0.6405770779 0.2337458432 0.1724509597
0.6413890123 0.2315085828 0.1724509597
0.6376581192 0.2276094705 0.1711543351
0.6339077950 0.2237395346 0.1698577106
0.6301383972 0.2198982686 0.1685610861
0.6263499260 0.2160860747 0.1672644615
0.6271003485 0.2138985693 0.1672644615
0.6232798100 0.2101288438 0.1659678370
0.6194405556 0.2063887119 0.1646712273
0.6155829430 0.2026776373 0.1633746028
0.6117070913 0.1989960670 0.1620779783
0.6123979092 0.1968597770 0.1620779783
0.6084911227 0.1932213604 0.1607813537
0.6091618538 0.1910963207 0.1607813537
0.6052246094 0.1875012964 0.1594847292
0.6012697816 0.1839361340 0.1581881046
0.6019080877 0.1818363667 0.1581881046
0.5979233980 0.1783149838 0.1568914652
0.5985421538 0.1762269139 0.1568914652
0.5945281982 0.1727495790 0.1555948555
0.5904380679 0.1695087403 0.1542982310
0.5863916278 0.1660904437 0.1530016065
0.5823284984 0.1627024710 0.1517049819
0.5828928351 0.1606689394 0.1517049819
0.5788016319 0.1573256552 0.1504083574
0.5746940970 0.1540131867 0.1491117328
0.5752282739 0.1520060897 0.1491117328
0.5710933805 0.1487383395 0.1478151083
0.5716090202 0.1467441022 0.1478151083
0.5674471259 0.1435216218 0.1465184838
0.5679446459 0.1415401548 0.1465184838
0.5637561679 0.1383631378 0.1452218741
0.5642357469 0.1363942921 0.1452218741
0.5600210428 0.1332632005 0.1439252496
0.5604828000 0.1313074529 0.1439252496
0.5609377027 0.1293503642 0.1439252496
0.5566865802 0.1262797266 0.1426286250
0.5571240187 0.1243356317 0.1426286250
0.5528477430 0.1213114262 0.1413320005
0.5532678366 0.1193807870 0.1413320005
0.5489464998 0.1164985746 0.1400353611
0.5446122885 0.1136463583 0.1387387365
0.5402844548 0.1107300594 0.1374421120
0.5406677127 0.1088433415 0.1374421120
0.5363162160 0.1059738249 0.1361454874
0.5366829038 0.1041009948 0.1361454874
0.5370430350 0.1022268683 0.1361454874
0.5373965502 0.1003517658 0.1361454874
0.5377436280 0.0984751955 0.1361454874
0.5333395600 0.0956986174 0.1348488778
0.5336703658 0.0938362330 0.1348488778
0.5339946747 0.0919726938 0.1348488778
0.5295587778 0.0892589688 0.1335522532
0.5298671126 0.0874098241 0.1335522532
0.5301690102 0.0855598599 0.1335522532
0.5257021189 0.0829091147 0.1322556287
0.5259883404 0.0810734555 0.1322556287
0.5262681246 0.0792370662 0.1322556287
0.5265415311 0.0773994699 0.1322556287
0.5268084407 0.0755611733 0.1322556287
0.5222935081 0.0730054528 0.1309590042
0.5177671909 0.0704821646 0.1296623796
0.5275708437 0.0700403526 0.1322556287
0.5184768438 0.0650565550 0.1296623796
0.5187007785 0.0632462353 0.1296623796
0.5189183950 0.0614351481 0.1296623796
0.4733019471 -0.2591815293 0.0028797775
0.4811964631 -0.2655774951 0.0029373730
0.4978858232 -0.2767208815 0.0030525639
0.5320993066 -0.2974923253 0.0032829463
0.5572663546 -0.3139433563 0.0034557327
0.5823772550 -0.3304810822 0.0036285196
0.6117390394 -0.3496453464 0.0038301039
0.6105148196 -0.3517785966 0.0038301039
0.6136258245 -0.3563855290 0.0038589016
0.6167120934 -0.3610185087 0.0038876997
0.6197733879 -0.3656772971 0.0039164973
0.6228095889 -0.3703618348 0.0039452952
0.6215130091 -0.3725335896 0.0039452952
0.6245076060 -0.3772542179 0.0039740927
0.6231868863 -0.3794318736 0.0039740927
0.6261394620 -0.3841882646 0.0040028905
0.6247946024 -0.3863715231 0.0040028905
0.6234421134 -0.3885501325 0.0040028905
0.6263355017 -0.3933520317 0.0040316884
0.6249586344 -0.3955359459 0.0040316884
0.6278092265 -0.4003727436 0.0040604863
0.6221820712 -0.3998893201 0.0040316884
0.6165660024 -0.3993715048 0.0040028905
0.6319962144 -0.4123288393 0.0041180816
0.6977139115 -0.4579973519 0.0045788460
0.7422651052 -0.4903436601 0.0048956214
0.7907883525 -0.5257344842 0.0052411947
0.8598356843 -0.5753931999 0.0057307570
0.8911034465 -0.6005786061 0.0059611392
0.9056034684 -0.6148372889 0.0060763303
3.8102388382 -2.5852978230 0.0262923688
3.8011913300 -2.5985822678 0.0262923688
3.7879760265 -2.6090037823 0.0262635704
3.7747347355 -2.6193645000 0.0262347721
3.7614672184 -2.6296648979 0.0262059737
3.7522649765 -2.6427788734 0.0262059737
3.7430171967 -2.6558606625 0.0262059737
3.7337236404 -2.6689100266 0.0262059737
3.7243847847 -2.6819267273 0.0262059737
3.7150003910 -2.6949110031 0.0262059737
3.7055706978 -2.7078623772 0.0262059737
3.6920659542 -2.7178215981 0.0261771772
3.6825566292 -2.7306928635 0.0261771772
3.6770114899 -2.7465176582 0.0262059737
3.6674017906 -2.7593362331 0.0262059737
3.6577475071 -2.7721209526 0.0262059737
3.6480488777 -2.7848720551 0.0262059737
3.6348264217 -2.7939119339 0.0261771772
3.6255414486 -2.8059499264 0.0261771772
3.6117777824 -2.8155190945 0.0261483788
3.6019277573 -2.8281095028 0.0261483788
3.5920336246 -2.8406653404 0.0261483788
3.5820960999 -2.8531866074 0.0261483788
3.5721149445 -2.8656728268 0.0261483788
3.5659828186 -2.8812623024 0.0261771772
3.5520217419 -2.8905410767 0.0261483788
3.5302979946 -2.8934278488 0.0260619856
3.5163166523 -2.9025549889 0.0260331873
1.2395522594 -1.0423829556 0.0091000963
1.1144586802 -0.9579503536 0.0082361633
1.0883541107 -0.9422839880 0.0080633769
1.0510300398 -0.9166322947 0.0078041968
1.0478240252 -0.9202955365 0.0078041968
1.0182992220 -0.9008615613 0.0076026120
0.9964162111 -0.8878551722 0.0074586235
0.9746366739 -0.8747071624 0.0073146345
0.9492379427 -0.8580810428 0.0071418481
0.9276789427 -0.8446385860 0.0069978586
0.9026703238 -0.8275356889 0.0068250722
0.8776441216 -0.8104296327 0.0066522858
0.8526101708 -0.7933080196 0.0064794994
0.8279845715 -0.7757251263 0.0063067130
0.8036174774 -0.7578474879 0.0061339256
0.7826254368 -0.7436585426 0.0059899371
0.7655056119 -0.7326316833 0.0058747460
0.7484723926 -0.7214945555 0.0057595549
0.7315264940 -0.7102475762 0.0056443638
0.7146683931 -0.6988912821 0.0055291727
0.6978986263 -0.6874260902 0.0054139816
0.6812177896 -0.6758525372 0.0052987901
0.6646264791 -0.6641710997 0.0051835994
0.6445804834 -0.6488559246 0.0050396104
0.6246496439 -0.6334092021 0.0048956214
0.6048347354 -0.6178314686 0.0047516329
0.5991668105 -0.6163758636 0.0047228350
0.5970116258 -0.6184635758 0.0047228350
0.5913665295 -0.6169561744 0.0046940371
0.5892093778 -0.6190167069 0.0046940371
0.5801299810 -0.6138461232 0.0046364418
0.5745387673 -0.6122435927 0.0046076435
0.5655337572 -0.6069737673 0.0045500482
0.5565726161 -0.6016486287 0.0044924528
0.5510623455 -0.5999280810 0.0044636549
0.5421769619 -0.5945048928 0.0044060596
0.5231928825 -0.5779769421 0.0042620706
0.5111666918 -0.5686250329 0.0041756770
0.4892342985 -0.5479972959 0.0040028905
0.4838788509 -0.5460693240 0.0039740927
0.4786391258 -0.5440260172 0.0039452952
0.4734195769 -0.5419527888 0.0039164973
0.4847430587 -0.5586109161 0.0040316884
0.5025386810 -0.5828819871 0.0042044749
0.5103358626 -0.5959582329 0.0042908685
3.4035422802 -3.9835214615 0.0299496837
3.3831393719 -3.9877593517 0.0298920907
3.3756492138 -4.0071854591 0.0299496837
3.3616411686 -4.0189442635 0.0299496837
3.3539891243 -4.0383400917 0.0300072804
3.3430569172 -4.0538773537 0.0300360769
3.3320574760 -4.0693874359 0.0300648753
3.3209905624 -4.0848698616 0.0300936736
3.3098561764 -4.1003246307 0.0301224720
3.2986538410 -4.1157512665 0.0301512685
3.2873845100 -4.1311502457 0.0301800668
3.2760477066 -4.1465201378 0.0302088652
3.2677335739 -4.1657924652 0.0302664619
3.2569780350 -4.1805462837 0.0302952565
3.2461609840 -4.1952753067 0.0303240567
3.2338120937 -4.2111072540 0.0303528551
3.2206528187 -4.2274675369 0.0303816535
3.2096369267 -4.2421083450 0.0304104481
3.1985597610 -4.2567224503 0.0304392464
3.1844263077 -4.2673058510 0.0304392464
3.1513743401 -4.3165597916 0.0305544380
3.1451022625 -4.3396701813 0.0306408312
3.1299347878 -4.3506221771 0.0306408312
3.1176390648 -4.3655872345 0.0306696296
2.7384362221 -3.8928205967 0.0271850973
2.7276983261 -3.9064519405 0.0272138957
2.7168984413 -3.9200558662 0.0272426941
2.7088751793 -3.9377477169 0.0273002889
2.6951134205 -3.9471795559 0.0273002889
2.6841282845 -3.9606993198 0.0273290873
2.6702866554 -3.9700443745 0.0273290873
2.6591932774 -3.9834966660 0.0273578856
2.6452720165 -3.9927546978 0.0273578856
2.6313183308 -4.0019640923 0.0273578856
2.6200699806 -4.0153093338 0.0273866840
2.6060380936 -4.0244302750 0.0273866840
2.5946819782 -4.0377054214 0.0274154805
2.5805718899 -4.0467381477 0.0274154805
2.5698175430 -4.0594949722 0.0274442788
2.5563414097 -4.0679945946 0.0274442788
2.5447762012 -4.0811328888 0.0274730772
2.5305149555 -4.0899906158 0.0274730772
2.5188436508 -4.1030573845 0.0275018755
2.5045058727 -4.1118245125 0.0275018755
2.4901375771 -4.1205420494 0.0275018755
2.4783146381 -4.1334943771 0.0275306702
2.4638712406 -4.1421198845 0.0275306702
2.1058797836 -3.5986530781 0.0237869620
2.0958206654 -3.6103024483 0.0238157585
2.0932085514 -3.6349148750 0.0239309482
2.0854790211 -3.6508760452 0.0239885468
2.0801334381 -3.6711742878 0.0240749381
2.0746717453 -3.6914796829 0.0241613314
2.0690934658 -3.7117917538 0.0242477264
2.0633985996 -3.7321093082 0.0243341196
2.0599966049 -3.7568132877 0.0244493093
2.0516588688 -3.7727601528 0.0245069060
2.0408556461 -3.7842962742 0.0245357025
2.0299968719 -3.7958033085 0.0245645009
2.0214309692 -3.8116948605 0.0246220976
2.0127787590 -3.8275723457 0.0246796925
2.0040402412 -3.8434362411 0.0247372892
1.9975171089 -3.8637239933 0.0248236805
1.9885902405 -3.8795659542 0.0248812754
1.9795774221 -3.8953931332 0.0249388721
1.9704781771 -3.9112040997 0.0249964669
1.9568135738 -3.9180586338 0.0249964669
1.9475729465 -3.9338216782 0.0250540636
1.9316210747 -3.9361100197 0.0250252653
1.9397957325 -3.9877641201 0.0253132433
1.9287390709 -3.9986755848 0.0253420416
1.9122114182 -4.0342884064 0.0254860297
2.4847819805 -5.3341612816 0.0336645991
2.4724462032 -5.3564147949 0.0337509885
2.4599847794 -5.3786482811 0.0338373855
2.4453306198 -5.3963065147 0.0338949785
2.4141676426 -5.3774528503 0.0337221958
2.3811292648 -5.3538808823 0.0335206091
2.3664667606 -5.3713073730 0.0335782059
2.3697478771 -5.4299230576 0.0338949785
2.3706607819 -5.4840383530 0.0341829583
2.3495316505 -5.4876856804 0.0341541581
2.3381855488 -5.5142593384 0.0342693515
2.3189232349 -5.5223875046 0.0342693515
2.2803933620 -5.4842991829 0.0339813754
2.2459738255 -5.4552516937 0.0337509885
2.2584712505 -5.5959401131 0.0345285311
2.2445018291 -5.6177134514 0.0346149243
2.2340934277 -5.6487536430 0.0347589143
2.2216694355 -5.6751346588 0.0348741040
2.2072777748 -5.6968364716 0.0349604972
1.9967693090 -5.2634878159 0.0321959108
1.9519593716 -5.2002363205 0.0317639448
1.9320502281 -5.2023329735 0.0317351446
2.1029005051 -5.7840905190 0.0352196768
2.0894823074 -5.8102092743 0.0353348665
2.0742268562 -5.8315958977 0.0354212634
2.0571849346 -5.8482308388 0.0354788564
1.9801138639 -5.6897978783 0.0344709344
1.7311320305 -5.0299534798 0.0304104481
1.6990243196 -4.9933800697 0.0301512685
1.6831830740 -5.0040178299 0.0301800668
1.6751993895 -5.0383205414 0.0303528551
1.6576024294 -5.0441370010 0.0303528551
1.6446328163 -5.0641536713 0.0304392464
1.6284778118 -5.0746231079 0.0304680448
1.6137863398 -5.0898056030 0.0305256397
1.5975087881 -5.1001777649 0.0305544380
1.5826617479 -5.1152734756 0.0306120347
1.5677287579 -5.1303267479 0.0306696296
1.5541584492 -5.1501235962 0.0307560209
1.5419024229 -5.1746783257 0.0308712125
1.5280772448 -5.1944150925 0.0309576076
1.5155328512 -5.2189183235 0.0310727991
1.5028358698 -5.2433962822 0.0311879888
1.4886201620 -5.2630400658 0.0312743820
1.4742861986 -5.2826476097 0.0313607752
1.4611647129 -5.3070387840 0.0314759649
1.4465765953 -5.3265786171 0.0315623619
1.4344663620 -5.3557376862 0.0317063518
1.4208878279 -5.3800439835 0.0318215415
1.4058932066 -5.3994832039 0.0319079347
1.3920271397 -5.4237246513 0.0320231244
1.3767788410 -5.4430885315 0.0321095176
1.3626260757 -5.4672627449 0.0322247073
1.3471236229 -5.4865493774 0.0323111005
1.3338637352 -5.5155119896 0.0324550904
1.3192542791 -5.5395855904 0.0325702801
1.3056397438 -5.5684909821 0.0327142701
1.2918393612 -5.5973687172 0.0328582600
1.2745165825 -5.6115932465 0.0329158530
1.2582058907 -5.6306438446 0.0330022499
1.2439327240 -5.6594128609 0.0331462361
1.3973642588 -6.7922387123 0.0397121310
1.3786181211 -6.8215756416 0.0398561209
1.3587059975 -6.8459601402 0.0399713106
1.3386412859 -6.8702888489 0.0400865041
1.3165374994 -6.8847398758 0.0401440971
1.2971254587 -6.9138607979 0.0402880870
1.2729840279 -6.9183464050 0.0402880870
1.2604147196 -6.9867057800 0.0406624563
1.2377676964 -7.0009083748 0.0407200530
1.2030380964 -6.9460754395 0.0403744802
1.1717917919 -7.0578722954 0.0409792326
1.1511746645 -7.0865926743 0.0411232226
1.1161845922 -7.0263814926 0.0407488495
1.0870258808 -7.0005946159 0.0405760631
1.0671042204 -7.0340027809 0.0407488495
1.0462270975 -7.0624117851 0.0408928394
1.0244444609 -7.0858125687 0.0410080291
1.0039159060 -7.1190476418 0.0411808155
0.9783754349 -7.1175556183 0.0411520191
0.9461833835 -7.0664205551 0.0408352427
0.9384122491 -7.1985745430 0.0415839851
0.8759480119 -6.9091830254 0.0398849174
0.8038244247 -6.5251703262 0.0376386903
0.8031715155 -6.7116050720 0.0387042090
0.8012257218 -6.8981127739 0.0397697240
0.7799593806 -6.9257078171 0.0399137139
0.7596012354 -6.9631781578 0.0401152968
0.7374057770 -6.9856748581 0.0402304903
0.7155738473 -7.0130748749 0.0403744802
0.6935586929 -7.0404071808 0.0405184664
0.6718389392 -7.0726485252 0.0406912565
0.6494422555 -7.0998439789 0.0408352427
0.6273067594 -7.1319499016 0.0410080291
0.6049549580 -7.1639871597 0.0411808155
0.5823861957 -7.1959552765 0.0413536020
0.5596025586 -7.2278528214 0.0415263921
0.5366023183 -7.2596783638 0.0416991748
0.5146605372 -7.2913413048 0.0418719649
0.4937919378 -7.3228521347 0.0420447476
0.4685581028 -7.3495607376 0.0421887375
0.4438129961 -7.3661231995 0.0422751307
0.4192458689 -7.3875942230 0.0423903205
0.3798762262 -8.2006740570 0.0470555648
0.3518992066 -8.2169351578 0.0471419543
0.3228155077 -8.2081222534 0.0470843613
0.2936141491 -8.1942090988 0.0469979681
0.2643500566 -8.1751947403 0.0468827747
0.2316833586 -8.0361309052 0.0460764393
0.1696973443 -6.7323536873 0.0385602191
0.1771510392 -8.1075334549 0.0464796051
0.1485633999 -8.0931053162 0.0463932119
0.1198467389 -8.0635786057 0.0462204255
0.0915788636 -8.0539484024 0.0461628288
0.0632503480 -8.0292215347 0.0460188426
0.0351472571 -8.0143938065 0.0459324494
0.0071395384 -7.9944677353 0.0458172597
-0.0207275879 -7.9744443893 0.0457020663
-0.0484548360 -7.9543242455 0.0455868766
-0.0760429278 -7.9341077805 0.0454716869
-0.1034894213 -7.9137959480 0.0453564934
-0.1307960898 -7.8933892250 0.0452413037
-0.1580573618 -7.8778872490 0.0451549105
-0.1845261753 -7.8322997093 0.0448957272
-0.2022473961 -7.4667410851 0.0427934937
-0.2555364370 -7.5001268387 0.0429950766
-0.1061608717 -2.4973108768 0.0141685056
-0.1126880050 -2.4469735622 0.0138805266
-0.1212287173 -2.4465653896 0.0138805266
-0.1368755847 -2.5859446526 0.0146868648
-0.1800408512 -3.0191929340 0.0171922706
-0.1887422949 -2.9886028767 0.0170194842
-0.1784590632 -2.4079639912 0.0136789428
-0.1861117035 -2.3973548412 0.0136213470
-0.1944790930 -2.3966903687 0.0136213470
-0.2028437853 -2.3959970474 0.0136213470
-0.2107783705 -2.3902926445 0.0135925487
-0.2186753154 -2.3845624924 0.0135637522
-0.2265348136 -2.3788061142 0.0135349538
-0.2348372042 -2.3780007362 0.0135349538
-0.2426389754 -2.3721916676 0.0135061564
-0.2504033446 -2.3663566113 0.0134773580
-0.2581296563 -2.3604967594 0.0134485606
-0.2658180892 -2.3546116352 0.0134197623
-0.2734689116 -2.3487019539 0.0133909658
-0.2810814083 -2.3427672386 0.0133621674
-0.2886561453 -2.3368082047 0.0133333700
-0.2968112230 -2.3357865810 0.0133333700
-0.3043265343 -2.3297767639 0.0133045716
-0.3118038177 -2.3237433434 0.0132757742
-0.3192423880 -2.3176860809 0.0132469758
-0.3273308575 -2.3165574074 0.0132469758
-0.3347096741 -2.3104507923 0.0132181775
-0.3427724838 -2.3092684746 0.0132181775
-0.3500915468 -2.3031129837 0.0131893810
-0.3581286669 -2.3018770218 0.0131893810
-0.3653872907 -2.2956731319 0.0131605817
-0.3726067245 -2.2894470692 0.0131317852
-0.3797870874 -2.2831983566 0.0131029868
-0.3869287372 -2.2769274712 0.0130741894
-0.3940309286 -2.2706346512 0.0130453911
-0.4010942280 -2.2643201351 0.0130165936
-0.4089956284 -2.2629063129 0.0130165936
-0.4159971476 -2.2565455437 0.0129877953
-0.4238716066 -2.2550797462 0.0129877953
-0.4308114350 -2.2486736774 0.0129589988
-0.4377119839 -2.2422463894 0.0129302004
-0.4445726871 -2.2357988358 0.0129014030
-0.4523742497 -2.2342333794 0.0129014030
-0.4591729045 -2.2277412415 0.0128726047
-0.4659315050 -2.2212290764 0.0128438072
-0.4726504982 -2.2146966457 0.0128150089
-0.4793293476 -2.2081449032 0.0127862124
-0.4859681427 -2.2015731335 0.0127574140
-0.4936502874 -2.1998634338 0.0127574140
-0.5002260804 -2.1932497025 0.0127286166
-0.5078790784 -2.1914901733 0.0127286166
-0.5143914819 -2.1848342419 0.0126998182
-0.5208636522 -2.1781599522 0.0126710208
-0.5272957683 -2.1714668274 0.0126422225
-0.5336872935 -2.1647555828 0.0126134260
-0.5400386453 -2.1580259800 0.0125846276
-0.5475681424 -2.1561279297 0.0125846276
-0.5526193380 -2.1445138454 0.0125270318
-0.5563437343 -2.1280503273 0.0124406377
-0.5392907858 -2.0343050957 0.0118934810
-0.5396099091 -2.0083451271 0.0117494920
-0.5440136194 -1.9967944622 0.0116918962
-0.5509805679 -1.9948832989 0.0116918962
-0.5566051602 -1.9881293774 0.0116630979
-0.5635418296 -1.9861743450 0.0116630979
-0.5691024065 -1.9793864489 0.0116343005
-0.5746224523 -1.9725836515 0.0116055021
-0.5801022649 -1.9657666683 0.0115767056
-0.5869604349 -1.9637298584 0.0115767056
-0.5927171111 -1.9567762613 0.0115479073
-0.5998852849 -1.9545905590 0.0115479073
-0.6081753373 -1.9572634697 0.0115767056
-0.6164913177 -1.9599019289 0.0116055021
-0.6308507919 -1.9815793037 0.0117494920
-0.6712251306 -2.0841503143 0.0123830419
-0.6923345923 -2.1246132851 0.0126422225
-0.6997465491 -2.1221835613 0.0126422225
-0.7055792212 -2.1149814129 0.0126134260
-0.7129577994 -2.1125056744 0.0126134260
-0.7203273773 -2.1100041866 0.0126134260
-0.7273204923 -2.1076037884 0.0126134260
-0.7359405756 -2.1099052429 0.0126422225
-0.7433012128 -2.1073234081 0.0126422225
-0.7523207068 -2.1094295979 0.0126710208
-0.7596795559 -2.1067905426 0.0126710208
-0.7687299252 -2.1088275909 0.0126998182
-0.7812386751 -2.1202185154 0.0127862124
-0.7921026945 -2.1268577576 0.0128438072
-0.7668899298 -1.9920549393 0.0120662674
-0.7900456190 -2.0313451290 0.0123254471
-0.8042077422 -2.0257802010 0.0123254471
-0.8038759828 -2.0043795109 0.0122102555
-0.8108678460 -2.0015611649 0.0122102555
-0.8140857816 -1.9894541502 0.0121526606
-0.8362095952 -2.0236055851 0.0123830419
-0.8509251475 -2.0391499996 0.0124982335
-0.8734803200 -2.0730657578 0.0127286166
-0.8690331578 -2.0423710346 0.0125558302
-0.8584948182 -1.9979369640 0.0122966496
-0.8437001109 -1.9444180727 0.0119798742
-0.8484879732 -1.9368764162 0.0119510768
-0.8632856607 -1.9522143602 0.0120662674
-0.8640155792 -1.9354764223 0.0119798742
-0.8707662821 -1.9324486256 0.0119798742
-0.8754481077 -1.9248409271 0.0119510768
-0.8821619153 -1.9217731953 0.0119510768
-0.8888646364 -1.9186822176 0.0119510768
-0.8955568671 -1.9155677557 0.0119510768
-0.9022378922 -1.9124300480 0.0119510768
-0.9089078903 -1.9092690945 0.0119510768
-0.9134137630 -1.9015721083 0.0119222784
-0.9200457931 -1.8983721733 0.0119222784
-0.9266669154 -1.8951489925 0.0119222784
-0.9310760498 -1.8874132633 0.0118934810
-0.9376586080 -1.8841516972 0.0118934810
-0.9442299604 -1.8808671236 0.0118934810
-0.9507895708 -1.8775597811 0.0118934810
-0.9573377967 -1.8742293119 0.0118934810
-0.9638741612 -1.8708763123 0.0118934810
-0.9703987837 -1.8675003052 0.0118934810
-0.9769117832 -1.8641015291 0.0118934810
-0.9810876846 -1.8562536240 0.0118646827
-0.9875614047 -1.8528176546 0.0118646827
-0.9916670918 -1.8449491262 0.0118358862
-0.9981009960 -1.8414763212 0.0118358862
-1.0021364689 -1.8335872889 0.0118070869
-1.0085306168 -1.8300781250 0.0118070869
-1.0149128437 -1.8265464306 0.0118070869
-1.0212824345 -1.8229926825 0.0118070869
-1.0276395082 -1.8194166422 0.0118070869
-1.0339843035 -1.8158183098 0.0118070869
-1.0403163433 -1.8121980429 0.0118070869
-1.0466358662 -1.8085556030 0.0118070869
-1.0504341125 -1.8005658388 0.0117782885
-1.0567127466 -1.7968882322 0.0117782885
-1.0579019785 -1.7845733166 0.0117206937
-1.0717850924 -1.7937660217 0.0118070869
-1.0754716396 -1.7857239246 0.0117782885
-1.0816982985 -1.7819589376 0.0117782885
-1.8206319809 -2.9828114510 0.0198992621
-1.8179670572 -2.9551246166 0.0197552722
-1.1029274464 -1.7747876644 0.0118070869
-1.0906157494 -1.7412164211 0.0116055021
-1.0966869593 -1.7373988628 0.0116055021
-1.1000725031 -1.7293345928 0.0115767056
-2.5518102646 -3.9939167500 0.0270699076
-2.5306112766 -3.9302940369 0.0266955364
-2.5361659527 -3.9088437557 0.0266091432
-1.9489316940 -2.9785969257 0.0202736333
-1.9318588972 -2.9299910069 0.0199856553
-1.9475957155 -2.9315671921 0.0200432520
-2.6903905869 -4.0227842331 0.0276458617
-2.3462612629 -3.4285900593 0.0237005670
-2.3553826809 -3.4162592888 0.0236717723
-2.3672931194 -3.4080166817 0.0236717723
-2.3705906868 -3.3874313831 0.0235853754
-2.3852763176 -3.3832263947 0.0236141738
-2.3941812515 -3.3707995415 0.0235853754
-2.4059331417 -3.3624215126 0.0235853754
-2.4205737114 -3.3580627441 0.0236141738
-2.4381463528 -3.3576922417 0.0236717723
-2.4557449818 -3.3572397232 0.0237293653
-2.4733703136 -3.3567054272 0.0237869620
-2.4939968586 -3.3601071835 0.0238733552
-2.5057103634 -3.3513810635 0.0238733552
-3.7900207043 -5.0005087852 0.0359108225
-3.8391191959 -4.9565911293 0.0358820260
-3.8563978672 -4.9431595802 0.0358820260
-3.4258835316 -4.3276257515 0.0315623619
-3.4347422123 -4.3078160286 0.0315047652
-3.4411261082 -4.2834949493 0.0314183719
-3.4033913612 -4.2047324181 0.0309288092
-3.4110066891 -4.1856651306 0.0308712125
-3.4874775410 -4.2523107529 0.0314471684
-3.5299777985 -4.2691283226 0.0316775516
-3.5568959713 -4.2727823257 0.0317927413
-3.5325512886 -4.2149410248 0.0314471684
-3.4506053925 -4.0878653526 0.0305832364
-3.5432107449 -4.1666817665 0.0312743820
-3.6266908646 -4.2334733009 0.0318791345
-3.5827224255 -4.1525878906 0.0313607752
-3.5939202309 -4.1362795830 0.0313319787
-3.6247811317 -4.1425380707 0.0314759649
-4.1806983948 -4.7122664452 0.0360548124
-4.1971216202 -4.6976442337 0.0360548124
-4.2168345451 -4.6866850853 0.0360836126
-4.2264614105 -4.6645197868 0.0360260122
-4.5157890320 -4.9149270058 0.0382146463
-4.5295248032 -4.8954615593 0.0381858461
-4.5533962250 -4.8869428635 0.0382434428
-4.5875191689 -4.8892626762 0.0383874327
-4.6079888344 -4.8768568039 0.0384162329
-4.6249837875 -4.8607425690 0.0384162329
-4.6384663582 -4.8409557343 0.0383874327
-4.6310539246 -4.7995290756 0.0381858461
-4.6477799416 -4.7833333015 0.0381858461
-4.6870584488 -4.7237448692 0.0380994529
-4.6752691269 -4.6790370941 0.0378690735
-4.7163791656 -4.6873798370 0.0380706564
-4.8038277626 -4.7411899567 0.0386466123
-4.8132119179 -4.7173871994 0.0385890156
-4.8296489716 -4.7005577087 0.0385890156
-4.8603968620 -4.6975808144 0.0387042090
-4.8695573807 -4.6736555099 0.0386466123
-4.8894577026 -4.6600813866 0.0386754088
-4.9093232155 -4.6464257240 0.0387042090
-4.9291524887 -4.6326885223 0.0387330055
-4.9489459991 -4.6188688278 0.0387618057
-4.9687042236 -4.6049661636 0.0387906022
-4.9884243011 -4.5909829140 0.0388193987
-5.0081071854 -4.5769186020 0.0388481990
-5.0277528763 -4.5627727509 0.0388769954
-5.0473604202 -4.5485448837 0.0389057919
-5.0632081032 -4.5308976173 0.0389057919
-5.0789928436 -4.5131964684 0.0389057919
-5.0947155952 -4.4954400063 0.0389057919
-5.1103763580 -4.4776291847 0.0389057919
-5.1222052574 -4.4564790726 0.0388769954
-5.1377310753 -4.4385709763 0.0388769954
-5.1835317612 -4.4466776848 0.0391073786
-5.2180399895 -4.4447827339 0.0392513685
-5.2602276802 -4.4491648674 0.0394529514
-5.2642474174 -4.4211211205 0.0393665582
-5.2834863663 -4.4059219360 0.0393953547
-5.2988333702 -4.3874526024 0.0393953547
-5.3141160011 -4.3689298630 0.0393953547
-5.3332042694 -4.3535189629 0.0394241512
-5.3561320305 -4.3411788940 0.0394817479
-5.3751463890 -4.3255925179 0.0395105444
-5.3941164017 -4.3099279404 0.0395393446
-5.4137916565 -4.2932391167 0.0395681411
-5.4334177971 -4.2764625549 0.0395969413
-5.4522490501 -4.2605519295 0.0396257341
-5.4749841690 -4.2476305962 0.0396833308
-5.5016546249 -4.2376546860 0.0397697240
-5.5124435425 -4.2153844833 0.0397409275
-5.5271244049 -4.1961169243 0.0397409275
-5.5616898537 -4.1918611526 0.0398849174
-5.7603330612 -4.3103556633 0.0412096120
-5.8234820366 -4.3260354996 0.0415551886
-5.8224596977 -4.2937998772 0.0414399952
-5.8212833405 -4.2616238594 0.0413248055
-5.7876143456 -4.2059693336 0.0409792326
-5.8022603989 -4.1857414246 0.0409792326
-5.7477674484 -4.1159210205 0.0404896699
-5.6928577423 -4.0465340614 0.0400001071
-5.7069478035 -4.0266380310 0.0400001071
-5.6964097023 -3.9894645214 0.0398273207
-5.6610622406 -3.9352712631 0.0394817479
-5.6829915047 -3.9211704731 0.0395393446
-5.7007670403 -3.9041380882 0.0395681411
-5.7143602371 -3.8842151165 0.0395681411
-5.7444543839 -3.8754432201 0.0396833308
-5.7662515640 -3.8609378338 0.0397409275
-5.7921810150 -3.8490970135 0.0398273207
-5.8139247894 -3.8343672752 0.0398849174
-5.8356366158 -3.8195328712 0.0399425142
-5.8579797745 -3.8035697937 0.0400001071
-5.8802833557 -3.7874960899 0.0400577039
-5.9012312889 -3.7733685970 0.0401152968
-5.9221506119 -3.7591440678 0.0401728936
-5.9436931610 -3.7437853813 0.0402304903
-5.9609632492 -3.7256686687 0.0402592868
-5.9824261665 -3.7101156712 0.0403168835
-6.0044975281 -3.6934089661 0.0403744802
-6.0271687508 -3.6755392551 0.0404320769
-6.0478749275 -3.6607165337 0.0404896699
-6.0691852570 -3.6447384357 0.0405472666
-6.0904569626 -3.6286556721 0.0406048596
-6.1116909981 -3.6124691963 0.0406624563
-6.1458206177 -3.6037740707 0.0408064462
-6.1540422440 -3.5797822475 0.0407776497
-5.5914278030 -3.1740148067 0.0368035547
-5.5415077209 -3.1200819016 0.0364003852
-5.4800910950 -3.0352201462 0.0358532295
-5.4468502998 -2.9919624329 0.0355652496
-5.4221525192 -2.9537658691 0.0353348665
-5.3796672821 -2.9062552452 0.0349892937
-5.3765640259 -2.8803641796 0.0349029042
-5.3556914330 -2.8451318741 0.0347013175
-5.3479032516 -2.8170828819 0.0345861241
-5.3178367615 -2.7775297165 0.0343269482
-5.2919979095 -2.7405226231 0.0340965651
-5.3059773445 -2.7243213654 0.0341253616
-5.3599920273 -2.7285063267 0.0344133414
-5.3427133560 -2.6962399483 0.0342405513
-5.1778368950 -2.5676298141 0.0330598429
-5.2136783600 -2.5627994537 0.0332326330
-5.2225923538 -2.5445849895 0.0332326330
-5.2408843040 -2.5297822952 0.0332902260
-5.2726655006 -2.5213618279 0.0334342159
-5.3401451111 -2.5308322906 0.0338085853
-5.4168019295 -2.5441212654 0.0342405513
-5.4256501198 -2.5251963139 0.0342405513
-5.4616622925 -2.5188302994 0.0344133414
-5.4795126915 -2.5039148331 0.0344709344
-5.4927725792 -2.4868390560 0.0344997309
-5.5014195442 -2.4676508904 0.0344997309
-5.5145678520 -2.4504656792 0.0345285311
-5.5276622772 -2.4332201481 0.0345573314
-5.5407028198 -2.4159128666 0.0345861241
-5.5582790375 -2.4005308151 0.0346437208
-5.5804100037 -2.3870258331 0.0347301140
-5.5841069221 -2.3655765057 0.0347013175
-5.6476373672 -2.3693304062 0.0350468904
-5.6558732986 -2.3496024609 0.0350468904
-5.6501727104 -2.3241271973 0.0349604972
-5.5193829536 -2.2476911545 0.0340965651
-4.5630087852 -1.8386576176 0.0281066280
-4.5601143837 -1.8190034628 0.0280490313
-4.5664362907 -1.8030748367 0.0280490313
-4.5866665840 -1.7925996780 0.0281354245
-4.5835738182 -1.7729607821 0.0280778296
-4.5897350311 -1.7569494247 0.0280778296
-4.5911660194 -1.7391414642 0.0280490313
-4.5972084999 -1.7231049538 0.0280490313
-4.5985093117 -1.7053036690 0.0280202329
-4.6044335365 -1.6892417669 0.0280202329
-4.6105942726 -1.6723537445 0.0280202329
-4.7107853889 -1.6893000603 0.0285961889
-5.1029148102 -1.8103119135 0.0309576076
-5.3308696747 -1.8705064058 0.0323111005
-5.4223642349 -1.8814698458 0.0328294635
-5.5234546661 -1.8950707912 0.0334054157
-5.6389060020 -1.9128186703 0.0340677686
-5.7308506966 -1.9218146801 0.0345861241
-5.8276715279 -1.9317693710 0.0351332836
-5.9246296883 -1.9410710335 0.0356804393
-6.0027017593 -1.9435422421 0.0361124091
-6.0903840065 -1.9485453367 0.0366019718
-6.1638741493 -1.9484282732 0.0370051377
-6.2374372482 -1.9478216171 0.0374083072
-6.3110704422 -1.9467250109 0.0378114767
-6.3752074242 -1.9422156811 0.0381570496
-6.4393897057 -1.9372804165 0.0385026261
-6.5036144257 -1.9319223166 0.0388481990
-6.5678792000 -1.9261391163 0.0391937718
-6.6273803711 -1.9185365438 0.0395105444
-6.6821017265 -1.9091646671 0.0397985242
-6.7320265770 -1.8980716467 0.0400577039
-6.7867703438 -1.8879985809 0.0403456800
-6.8367052078 -1.8762394190 0.0406048596
-6.8914651871 -1.8654646873 0.0408928394
-6.9414029121 -1.8530371189 0.0411520191
-6.9961714745 -1.8415578604 0.0414399952
-7.0461053848 -1.8284611702 0.0416991748
-7.1057181358 -1.8175232410 0.0420159511
-7.1604928970 -1.8049657345 0.0423039310
-7.2104144096 -1.7908390760 0.0425631106
-7.3944544792 -1.7533119917 0.0435422361
-7.4543833733 -1.7387282848 0.0438590087
-7.4896416664 -1.7194306850 0.0440317988
-7.5541129112 -1.7065389156 0.0443773717
-7.5941839218 -1.6877770424 0.0445789546
-7.6439843178 -1.6708964109 0.0448381342
-7.6839828491 -1.6515824795 0.0450397171
-7.7288303375 -1.6330466270 0.0452701002
-7.7736420631 -1.6142176390 0.0455004834
-7.8135180473 -1.5940928459 0.0457020663
-7.8533473015 -1.5737071037 0.0459036529
-7.8980345726 -1.5540333986 0.0461340360
-7.9377708435 -1.5331152678 0.0463356189
-7.9774565697 -1.5119385719 0.0465372019
-8.0121755600 -1.4895862341 0.0467099883
-8.0517549515 -1.4679076672 0.0469115712
-8.0863580704 -1.4450904131 0.0470843613
-8.1258239746 -1.4229148626 0.0472859479
-8.1652326584 -1.4004814625 0.0474875309
-8.2048244476 -1.3763567209 0.0476891138
-8.2443485260 -1.3519625664 0.0478906967
-8.2835712433 -1.3287401199 0.0480922796
-8.3276710510 -1.3060401678 0.0483226627
-8.3667726517 -1.2822879553 0.0485242531
-8.4058074951 -1.2582784891 0.0487258360
-8.4447765350 -1.2340121269 0.0489274189
-8.4836788177 -1.2094867229 0.0491290018
