-0.7299513817 0.8356086016 0.0130721899
-0.7270301580 0.8381514549 0.0130721899
-0.7241000533 0.8406841159 0.0130721899
-0.7243919969 0.8470220566 0.0131332744
-0.7214309573 0.8495454192 0.0131332744
-0.7216655016 0.8558962941 0.0131943598
-0.7218644023 0.8622590303 0.0132554444
-0.7188501954 0.8647735119 0.0132554444
-0.7189910412 0.8711488843 0.0133165307
-0.7159458399 0.8736532927 0.0133165307
-0.7128919363 0.8761470318 0.0133165307
-0.7098292708 0.8786301017 0.0133165307
-0.7067580223 0.8811025023 0.0133165307
-0.7036778927 0.8835642934 0.0133165307
-0.7005894780 0.8860151768 0.0133165307
-0.6974924803 0.8884552717 0.0133165307
-0.6943869591 0.8908845186 0.0133165307
-0.6943138242 0.8972715139 0.0133776162
-0.6911773682 0.8996897936 0.0133776162
-0.6880326867 0.9020969272 0.0133776162
-0.6878787279 0.9084932804 0.0134387007
-0.6845442057 0.9110084772 0.0134387007
-0.6810411215 0.9136302471 0.0134387007
-0.6809634566 0.9199159145 0.0134997861
-0.6777480245 0.9222874641 0.0134997861
-0.6745245457 0.9246475697 0.0134997861
-0.6742061377 0.9310595989 0.0135608707
-0.6709520817 0.9334073067 0.0135608707
-0.6676898003 0.9357436895 0.0135608707
-0.6644191742 0.9380687475 0.0135608707
-0.6639969349 0.9444857240 0.0136219561
-0.6606960893 0.9467977285 0.0136219561
-0.6602146626 0.9532214403 0.0136830406
-0.6596964002 0.9596533179 0.0137441261
-0.6591410041 0.9660933018 0.0138052106
-0.6585489511 0.9725408554 0.0138662960
-0.6551501751 0.9748336673 0.0138662960
-0.6517434120 0.9771146178 0.0138662960
-0.6483287215 0.9793836474 0.0138662960
-0.6449059248 0.9816408753 0.0138662960
-0.6441867352 0.9880866408 0.0139273806
-0.6407337785 0.9903292060 0.0139273806
-0.6372730136 0.9925597310 0.0139273806
-0.6364716887 0.9990069270 0.0139884651
-0.6329804063 1.0012227297 0.0139884651
-0.6294816732 1.0034260750 0.0139884651
-0.6259752512 1.0056172609 0.0139884651
-0.6224612594 1.0077961683 0.0139884651
-0.6215325594 1.0142374039 0.0140495505
-0.6179882288 1.0164009333 0.0140495505
-0.6144366264 1.0185519457 0.0140495505
-0.6134255528 1.0249919891 0.0141106350
-0.6098439693 1.0271270275 0.0141106350
-0.6062549353 1.0292495489 0.0141106350
-0.6001554728 1.0270315409 0.0140495505
-0.5965668559 1.0291202068 0.0140495505
-0.5929709673 1.0311962366 0.0140495505
-0.5869104862 1.0289057493 0.0139884651
-0.5833154321 1.0309481621 0.0139884651
-0.5821399093 1.0373492241 0.0140495505
-0.5785153508 1.0393749475 0.0140495505
-0.5770977139 1.0458766222 0.0141106350
-0.5736262202 1.0477845669 0.0141106350
-0.5723310113 1.0541850328 0.0141717205
-0.5686475039 1.0561765432 0.0141717205
-0.5649573207 1.0581550598 0.0141717205
-0.5612603426 1.0601205826 0.0141717205
-0.5573709011 1.0621706247 0.0141717205
-0.5557610989 1.0686522722 0.0142328050
-0.5565701723 1.0794935226 0.0143549750
-0.5550544858 1.0858914852 0.0144160604
-0.5714221001 1.1280494928 0.0149658257
-0.5852776170 1.1658567190 0.0154545056
-0.5922491550 1.1903185844 0.0157599300
-0.5946704149 1.2058571577 0.0159431845
-0.5861024857 1.1989246607 0.0158210155
-0.5646189451 1.1648987532 0.0153323356
-0.3430525661 0.7222315669 0.0092849201
-0.3846019208 0.8187187910 0.0105677061
-0.3609131873 0.7746052146 0.0099568553
-0.3685419261 0.7986220717 0.0102622798
-0.3554967642 0.7771059275 0.0099568553
-0.3487117887 0.7692087293 0.0098346854
-0.3419862986 0.7612737417 0.0097125154
-0.3373235166 0.7578821182 0.0096514300
-0.3326888084 0.7544672489 0.0095903454
-0.3261108994 0.7464346290 0.0094681755
-0.3215482831 0.7429669499 0.0094070900
-0.3170138896 0.7394765019 0.0093460055
-0.3125076294 0.7359636426 0.0092849201
-0.3061231077 0.7278065681 0.0091627501
-0.3016901016 0.7242423296 0.0091016656
-0.2954111695 0.7160211205 0.0089794947
-0.2910517156 0.7124065161 0.0089184102
-0.2867209315 0.7087702751 0.0088573247
-0.2824192643 0.7051125169 0.0087962402
-0.2781466842 0.7014333606 0.0087351548
-0.2739032209 0.6977331042 0.0086740702
-0.2713439763 0.6987323165 0.0086740702
-0.2670221925 0.6950421929 0.0086129848
-0.2630929053 0.6911922097 0.0085519003
-0.2606786191 0.6921063662 0.0085519003
-0.2565495372 0.6883145571 0.0084908158
-0.2541453540 0.6892058849 0.0084908158
-0.2517378926 0.6900888681 0.0084908158
-0.2476652116 0.6862481833 0.0084297303
-0.2436224222 0.6823875308 0.0083686458
-0.2396096140 0.6785071492 0.0083075603
-0.2356269062 0.6746070385 0.0082464758
-0.2316741645 0.6706874967 0.0081853895
-0.2293316573 0.6714920998 0.0081853895
-0.2254231423 0.6675395370 0.0081243049
-0.2215450108 0.6635679603 0.0080632204
-0.2175821662 0.6596155167 0.0080021350
-0.2121397108 0.6508773565 0.0078799650
-0.2083712071 0.6468430758 0.0078188805
-0.2046336383 0.6427904367 0.0077577955
-0.2009269297 0.6387196779 0.0076967105
-0.1972511411 0.6346309185 0.0076356255
-0.1936063468 0.6305242777 0.0075745406
-0.1899925023 0.6264001131 0.0075134556
-0.1864099950 0.6222583652 0.0074523706
-0.1842367947 0.6229052544 0.0074523706
-0.1807000488 0.6187337637 0.0073912847
-0.1785391867 0.6193607450 0.0073912847
-0.1750483215 0.6151601076 0.0073302002
-0.1728999764 0.6157674193 0.0073302002
-0.1694555432 0.6115379333 0.0072691152
-0.1673198640 0.6121256948 0.0072691152
-0.1651821584 0.6127060056 0.0072691152
-0.1630422920 0.6132789254 0.0072691152
-0.1609005779 0.6138442755 0.0072691152
-0.1587569118 0.6144021749 0.0072691152
-0.1566111743 0.6149526238 0.0072691152
-0.1532881856 0.6106361151 0.0072080302
-0.1499969661 0.6063039303 0.0071469452
-0.1467381716 0.6019563079 0.0070858602
-0.1435112655 0.5975933671 0.0070247753
-0.1403166205 0.5932153463 0.0069636903
-0.1371545941 0.5888222456 0.0069026053
-0.1340246797 0.5844144821 0.0068415203
-0.1309275031 0.5799919963 0.0067804353
-0.1289020479 0.5804454684 0.0067804353
-0.1268750131 0.5808919072 0.0067804353
-0.1248467118 0.5813312531 0.0067804353
-0.1228166148 0.5817635059 0.0067804353
-0.1207853034 0.5821886659 0.0067804353
-0.1177982688 0.5776990056 0.0067193503
-0.1157808900 0.5781067014 0.0067193503
-0.1137623787 0.5785072446 0.0067193503
-0.1108396798 0.5739833713 0.0066582654
-0.1088356003 0.5743667483 0.0066582654
-0.1059617251 0.5698194504 0.0065971799
-0.1031209454 0.5652592182 0.0065360949
-0.1003135741 0.5606861115 0.0064750100
-0.0975391269 0.5561003685 0.0064139250
-0.0955975503 0.5564374328 0.0064139250
-0.0936545283 0.5567677617 0.0064139250
-0.0909454972 0.5521505475 0.0063528400
-0.0890177339 0.5524646044 0.0063528400
-0.0863582641 0.5478259921 0.0062917550
-0.0844456330 0.5481240749 0.0062917550
-0.0825316980 0.5484155416 0.0062917550
-0.0799382403 0.5437469482 0.0062306700
-0.0780398771 0.5440226197 0.0062306700
-0.0761402994 0.5442917347 0.0062306700
-0.0736134499 0.5395939946 0.0061695850
-0.0717293620 0.5398476720 0.0061695850
-0.0698443949 0.5400947928 0.0061695850
-0.0685334876 0.5453017354 0.0062306700
-0.0660722032 0.5405691862 0.0061695850
-0.0636450648 0.5358261466 0.0061085005
-0.0410572290 0.5380284786 0.0061085005
0.1233294606 0.5663143396 0.0065971799
0.1500855237 0.6730445027 0.0079410505
0.1398570538 0.6189780235 0.0072691152
0.1536204666 0.6671171784 0.0078799650
0.1571253389 0.6714359522 0.0079410505
0.1618568003 0.6805931330 0.0080632204
0.1678649783 0.6945761442 0.0082464758
0.1702886224 0.6939859390 0.0082464758
0.1727101803 0.6933872700 0.0082464758
0.1736273021 0.6880030632 0.0081853895
0.1760276258 0.6873928308 0.0081853895
0.1784261465 0.6867741346 0.0081853895
0.1808224767 0.6861470938 0.0081853895
0.1832162738 0.6855118275 0.0081853895
0.1842636615 0.6800525784 0.0081243049
0.1866361797 0.6794053316 0.0081243049
0.1876286715 0.6739436984 0.0080632204
0.1899801493 0.6732845902 0.0080632204
0.1923290044 0.6726174355 0.0080632204
0.1946758181 0.6719419360 0.0080632204
0.1970199645 0.6712583303 0.0080632204
0.1993620247 0.6705664992 0.0080632204
0.2017016560 0.6698664427 0.0080632204
0.2040385008 0.6691583395 0.0080632204
0.2063731849 0.6684420109 0.0080632204
0.2087050229 0.6677176356 0.0080632204
0.2110346705 0.6669850349 0.0080632204
0.2133617103 0.6662442684 0.0080632204
0.2156858444 0.6654955149 0.0080632204
0.2180076689 0.6647385359 0.0080632204
0.2187153101 0.6592406631 0.0080021350
0.2210153043 0.6584731340 0.0080021350
0.2216683626 0.6529760361 0.0079410505
0.2239461392 0.6521983743 0.0079410505
0.2262214869 0.6514126658 0.0079410505
0.2284937799 0.6506190896 0.0079410505
0.2290536314 0.6451193690 0.0078799650
0.2313042432 0.6443158388 0.0078799650
0.2335517257 0.6435046196 0.0078799650
0.2340375930 0.6380054355 0.0078188805
0.2363743633 0.6371433735 0.0078188805
0.2387079298 0.6362727880 0.0078188805
0.2409276068 0.6354356408 0.0078188805
0.2429226190 0.6346756220 0.0078188805
0.2451366782 0.6338237524 0.0078188805
0.2473474741 0.6329642534 0.0078188805
0.2495555580 0.6320969462 0.0078188805
0.2517605722 0.6312219501 0.0078188805
0.2539622486 0.6303393841 0.0078188805
0.2561610937 0.6294490099 0.0078188805
0.2583565414 0.6285510659 0.0078188805
0.2585956454 0.6230431795 0.0077577955
0.2607690096 0.6221366525 0.0077577955
0.2629389167 0.6212226748 0.0077577955
0.2651059031 0.6203010082 0.0077577955
0.2672693431 0.6193719506 0.0077577955
0.2694298625 0.6184351444 0.0077577955
0.2715870738 0.6174908280 0.0077577955
0.2716753185 0.6119861007 0.0076967105
0.2738099992 0.6110339761 0.0076967105
0.2759410739 0.6100745797 0.0076967105
0.2780690789 0.6091075540 0.0076967105
0.2801936865 0.6081331372 0.0076967105
0.2844590843 0.6116678119 0.0077577955
0.2865925729 0.6106711030 0.0077577955
0.2887223065 0.6096670628 0.0077577955
0.2908488214 0.6086554527 0.0077577955
0.2907643914 0.6031504869 0.0076967105
0.2928678393 0.6021319628 0.0076967105
0.2949679792 0.6011059284 0.0076967105
0.2993184924 0.6045352817 0.0077577955
0.3014270067 0.6034867167 0.0077577955
0.3035318553 0.6024308205 0.0077577955
0.3056327105 0.6013677120 0.0077577955
0.3077301085 0.6002971530 0.0077577955
0.3098235130 0.5992193818 0.0077577955
0.3119134009 0.5981342196 0.0077577955
0.3139995039 0.5970417261 0.0077577955
0.3160814643 0.5959421396 0.0077577955
0.3179520369 0.5949462056 0.0077577955
0.3201307058 0.5937767625 0.0077577955
0.3220979869 0.5927118659 0.0077577955
0.3217272162 0.5872188807 0.0076967105
0.3237751424 0.5860922337 0.0076967105
0.3258188665 0.5849585533 0.0076967105
0.3278588653 0.5838176012 0.0076967105
0.3298949003 0.5826695561 0.0076967105
0.3319266140 0.5815145373 0.0076967105
0.3314260840 0.5760391951 0.0076356255
0.3308911324 0.5705745816 0.0075745406
0.3303224146 0.5651206374 0.0075134556
0.3297196329 0.5596777201 0.0074523706
0.3290826380 0.5542460084 0.0073912847
0.3310154080 0.5530938506 0.0073912847
0.3329438865 0.5519351363 0.0073912847
0.3348685801 0.5507695079 0.0073912847
0.3394371271 0.5538380742 0.0074523706
0.3440308571 0.5568814874 0.0075134556
0.3459727466 0.5556771755 0.0075134556
0.3506023288 0.5586791039 0.0075745406
0.3525504768 0.5574517846 0.0075745406
0.3572158217 0.5604116917 0.0076356255
0.3591696918 0.5591614246 0.0076356255
0.3611194491 0.5579042435 0.0076356255
0.3630645275 0.5566403866 0.0076356255
0.3650054634 0.5553696156 0.0076356255
0.3669419587 0.5540920496 0.0076356255
0.3688736856 0.5528079271 0.0076356255
0.3708012104 0.5515168309 0.0076356255
0.3727239370 0.5502192974 0.0076356255
0.3746424019 0.5489147902 0.0076356255
0.3765563071 0.5476036072 0.0076356255
0.3755848408 0.5421995521 0.0075745406
0.3774752617 0.5408851504 0.0075745406
0.3793608546 0.5395643115 0.0075745406
0.3841652274 0.5422927737 0.0076356255
0.3860559464 0.5409483910 0.0076356255
0.3907034099 0.5437695384 0.0076967105
0.3925989866 0.5424025059 0.0076967105
0.3975633383 0.5449751019 0.0077577955
0.3965645432 0.5395099521 0.0076967105
0.3984454572 0.5381223559 0.0076967105
0.3971140087 0.5328835249 0.0076356255
0.3989715278 0.5314942002 0.0076356255
0.4038722217 0.5340614915 0.0076967105
0.4057340622 0.5326483846 0.0076967105
0.4106660485 0.5351709127 0.0077577955
0.4125317633 0.5337340832 0.0077577955
0.4143921435 0.5322909355 0.0077577955
0.4131313562 0.5269316435 0.0076967105
0.4118382037 0.5215876698 0.0076356255
0.4136562347 0.5201470256 0.0076356255
0.4123122692 0.5148231983 0.0075745406
0.4109359384 0.5095153451 0.0075134556
0.4127120972 0.5080777407 0.0075134556
0.4144831896 0.5066339374 0.0075134556
0.4130379856 0.5013519526 0.0074523706
0.4147856236 0.4999070466 0.0074523706
0.4165279269 0.4984562695 0.0074523706
0.4182654321 0.4969991744 0.0074523706
0.4232620299 0.4993230402 0.0075134556
0.4250022769 0.4978426397 0.0075134556
0.4300281703 0.5001201034 0.0075745406
0.4317711294 0.4986160994 0.0075745406
0.4368258715 0.5008468032 0.0076356255
0.4385715723 0.4993188977 0.0076356255
0.4403117299 0.4977850616 0.0076356255
0.4420467317 0.4962449670 0.0076356255
0.4404074252 0.4910047054 0.0075745406
0.4421187639 0.4894643128 0.0075745406
0.4404303133 0.4842472374 0.0075134556
0.4421178401 0.4827070236 0.0075134556
0.4403802752 0.4775137305 0.0074523706
0.4420442879 0.4759737551 0.0074523706
0.4368124902 0.4671817124 0.0073302002
0.4315248132 0.4584321380 0.0072080302
0.4261812568 0.4497254789 0.0070858602
0.4242655039 0.4446482658 0.0070247753
0.4223193526 0.4395902157 0.0069636903
0.4236984253 0.4382611215 0.0069636903
0.4287447333 0.4403308630 0.0070247753
0.4338108301 0.4423704743 0.0070858602
0.4388962984 0.4443800151 0.0071469452
0.4475570619 0.4498738647 0.0072691152
0.4526931942 0.4518105686 0.0073302002
0.4578480422 0.4537170529 0.0073912847
0.4630219638 0.4555928409 0.0074523706
0.4682144225 0.4574379623 0.0075134556
0.4734251797 0.4592525661 0.0075745406
0.4786544740 0.4610361159 0.0076356255
0.4802607298 0.4593626261 0.0076356255
0.4818613827 0.4576832950 0.0076356255
0.4834561348 0.4559983909 0.0076356255
0.4850448072 0.4543081820 0.0076356255
0.4866277575 0.4526122212 0.0076356255
0.4882045686 0.4509109557 0.0076356255
0.4897756577 0.4492039382 0.0076356255
0.4913407862 0.4474914670 0.0076356255
0.4966349304 0.4490970969 0.0076967105
0.4981996119 0.4473606944 0.0076967105
0.4997580349 0.4456190765 0.0076967105
0.5013105869 0.4438717663 0.0076967105
0.5028570294 0.4421190619 0.0076967105
0.5043970942 0.4403612316 0.0076967105
0.5059312582 0.4385977685 0.0076967105
0.5112743378 0.4400602579 0.0077577955
0.5128074288 0.4382727742 0.0077577955
0.5181720257 0.4396843016 0.0078188805
0.5197035074 0.4378730357 0.0078188805
0.5212289095 0.4360561669 0.0078188805
0.5227476954 0.4342342317 0.0078188805
0.5242604017 0.4324067533 0.0078188805
0.5296597481 0.4337108731 0.0078799650
0.5310196280 0.4320448041 0.0078799650
0.5365139246 0.4332059920 0.0079410505
0.5380980372 0.4312367439 0.0079410505
0.5396001339 0.4293556809 0.0079410505
0.5410956740 0.4274694026 0.0079410505
0.5386264324 0.4225235283 0.0078799650
0.5399510860 0.4208293855 0.0078799650
0.5374387503 0.4159135818 0.0078188805
0.5428760648 0.4170493782 0.0078799650
0.5443283916 0.4151519835 0.0078799650
0.5497838855 0.4162358046 0.0079410505
0.5552533865 0.4172868133 0.0080021350
0.5567067266 0.4153459668 0.0080021350
0.5581532121 0.4134000540 0.0080021350
0.5595927238 0.4114493728 0.0080021350
0.5610256195 0.4094934165 0.0080021350
0.5665227771 0.4104346335 0.0080632204
0.5679520965 0.4084544778 0.0080632204
0.5734659433 0.4093427360 0.0081243049
0.5789926052 0.4101977348 0.0081853895
0.5804210305 0.4081740677 0.0081853895
0.5859635472 0.4089761078 0.0082464758
0.5873876214 0.4069280922 0.0082464758
0.5888046026 0.4048751295 0.0082464758
0.5902141333 0.4028175175 0.0082464758
0.5916167498 0.4007547498 0.0082464758
0.5930119157 0.3986873329 0.0082464758
0.5944000483 0.3966147900 0.0082464758
0.5957809687 0.3945374191 0.0082464758
0.6013531089 0.3951697350 0.0083075603
0.6069371104 0.3957676291 0.0083686458
0.6125323772 0.3963316083 0.0084297303
0.6181390882 0.3968610168 0.0084908158
0.6193827391 0.3949171901 0.0084908158
0.6207575798 0.3927526176 0.0084908158
0.6178709269 0.3879564106 0.0084297303
0.6149585843 0.3831848502 0.0083686458
0.5992045403 0.3706461489 0.0081243049
0.5876515508 0.3608050346 0.0079410505
0.5760374665 0.3510489166 0.0077577955
0.5858570933 0.3541412354 0.0078799650
0.5870897770 0.3520939350 0.0078799650
0.5926319957 0.3525648117 0.0079410505
0.5938589573 0.3504941463 0.0079410505
0.5950788260 0.3484189510 0.0079410505
0.5876056552 0.3413855731 0.0078188805
0.6018481851 0.3467180431 0.0080021350
0.6204949617 0.3544019163 0.0082464758
0.5955169201 0.3376450241 0.0078799650
0.6165950894 0.3409327567 0.0081243049
0.5825650096 0.3198161721 0.0076356255
0.5836777687 0.3177808523 0.0076356255
0.5759465098 0.3110624552 0.0075134556
0.5814553499 0.3113743365 0.0075745406
0.5869734883 0.3116512299 0.0076356255
0.5969433784 0.3141864538 0.0077577955
0.6158392429 0.3212111890 0.0080021350
0.6258741021 0.3235834539 0.0081243049
0.6493323445 0.3326291144 0.0084297303
0.6549639106 0.3325911760 0.0084908158
0.6560055017 0.3305319846 0.0084908158
0.6526662707 0.3260388672 0.0084297303
0.6538003087 0.3237588406 0.0084297303
0.6504222155 0.3193048239 0.0083686458
0.6470210552 0.3148784041 0.0083075603
0.6435968280 0.3104799390 0.0082464758
0.6446767449 0.3082313538 0.0082464758
0.6412144899 0.3038727045 0.0081853895
0.6422713399 0.3016324639 0.0081853895
0.6433203816 0.2993885577 0.0081853895
0.6443614364 0.2971413136 0.0081853895
0.6408316493 0.2928470671 0.0081243049
0.6418499351 0.2906085253 0.0081243049
0.6382831931 0.2863549590 0.0080632204
0.6392789483 0.2841250896 0.0080632204
0.6356755495 0.2799128592 0.0080021350
0.6366488338 0.2776921093 0.0080021350
0.6330092549 0.2735212147 0.0079410505
0.6339602470 0.2713097930 0.0079410505
0.6302850842 0.2671802044 0.0078799650
0.6312138438 0.2649786472 0.0078799650
0.6321349740 0.2627735734 0.0078799650
0.6376864910 0.2624320090 0.0079410505
0.6385986805 0.2602043450 0.0079410505
0.6394129992 0.2581969202 0.0079410505
0.6449672580 0.2577826083 0.0080021350
0.6551893950 0.2591361105 0.0081243049
0.6607593894 0.2586341500 0.0081853895
0.6756851673 0.2616375089 0.0083686458
0.7000032067 0.2680484056 0.0086740702
0.6728073955 0.2551762462 0.0083075603
0.6596121192 0.2476620078 0.0081243049
0.6463729739 0.2402427197 0.0079410505
0.6377960443 0.2346076071 0.0078188805
0.6291876435 0.2290356457 0.0076967105
0.6205483675 0.2235263586 0.0075745406
0.6166015267 0.2197198123 0.0075134556
0.6079068780 0.2143204510 0.0073912847
0.6039167047 0.2105907947 0.0073302002
0.6046481133 0.2084816247 0.0073302002
0.6053721905 0.2063696086 0.0073302002
0.6060888171 0.2042554021 0.0073302002
0.6067981124 0.2021383792 0.0073302002
0.6027382016 0.1984955519 0.0072691152
0.6033588052 0.1966010630 0.0072691152
0.5992695093 0.1930018812 0.0072080302
0.5951624513 0.1894339472 0.0071469452
0.5910379291 0.1858967692 0.0070858602
0.5916832089 0.1838327050 0.0070858602
0.5875290632 0.1803411096 0.0070247753
0.5881550312 0.1782890409 0.0070247753
0.5839716792 0.1748435795 0.0069636903
0.5845784545 0.1728039682 0.0069636903
0.5803663731 0.1694045961 0.0069026053
0.5761377811 0.1660364419 0.0068415203
0.5767139196 0.1640242338 0.0068415203
0.5724572539 0.1607028097 0.0067804353
0.5681846142 0.1574128568 0.0067193503
0.5687305927 0.1554287225 0.0067193503
0.5644305944 0.1521855444 0.0066582654
0.5601149797 0.1489742994 0.0065971799
0.5606315136 0.1470183879 0.0065971799
0.5611413121 0.1450604200 0.0065971799
0.5567880869 0.1419117600 0.0065360949
0.5572800636 0.1399672180 0.0065360949
0.5529009700 0.1368657500 0.0064750100
0.5533753037 0.1349350810 0.0064750100
0.5489706993 0.1318812519 0.0064139250
0.5494276881 0.1299643368 0.0064139250
0.5498332977 0.1282374263 0.0064139250
0.5502775908 0.1263175160 0.0064139250
0.5458281040 0.1233409867 0.0063528400
0.5462552905 0.1214350909 0.0063528400
0.5466758609 0.1195274517 0.0063528400
0.5470897555 0.1176183745 0.0063528400
0.5474969745 0.1157081127 0.0063528400
0.5429928303 0.1128268018 0.0062917550
0.5433833003 0.1109308675 0.0062917550
0.5388558507 0.1080981940 0.0062306700
0.5343152881 0.1052985117 0.0061695850
0.5346795917 0.1034329161 0.0061695850
0.5448791981 0.1033330858 0.0062917550
0.5304646492 0.0988312587 0.0061085005
0.5324180722 0.0877002552 0.0061085005
0.5333072543 0.0821200386 0.0061085005
0.5335626006 0.0804442540 0.0061085005
1.0685628653 -1.8996243477 -0.9951387644
1.0863316059 -1.9468339682 -1.0183305740
1.0795291662 -1.9506142139 -1.0183305740
1.0705226660 -1.9504013062 -1.0162222385
1.0622115135 -1.9497789145 -1.0141139030
1.0532342196 -1.9494911432 -1.0120054483
1.0442720652 -1.9491647482 -1.0098972321
1.0353249311 -1.9487993717 -1.0077887774
1.0263931751 -1.9483956099 -1.0056805611
1.0174769163 -1.9479528666 -1.0035721064
1.0085762739 -1.9474720955 -1.0014638901
1.0017721653 -1.9509807825 -1.0014638901
0.9949558377 -1.9544657469 -1.0014638901
0.9881274104 -1.9579268694 -1.0014638901
0.9812870622 -1.9613641500 -1.0014638901
0.9744346142 -1.9647775888 -1.0014638901
0.9675703049 -1.9681669474 -1.0014638901
0.9586981535 -1.9674615860 -0.9993554354
0.9518245459 -1.9707961082 -0.9993554354
0.9449394941 -1.9741065502 -0.9993554354
0.9360894561 -1.9733017683 -0.9972471595
0.9291957617 -1.9765572548 -0.9972471595
0.9203660488 -1.9756835699 -0.9951387644
0.9134638309 -1.9788843393 -0.9951387644
0.9065507650 -1.9820607901 -0.9951387644
0.9003195167 -1.9848990440 -0.9951387644
0.8908242583 -1.9842101336 -0.9930304885
0.8838927746 -1.9873075485 -0.9930304885
0.8758053184 -1.9859306812 -0.9909220934
0.8688676357 -1.9889757633 -0.9909220934
0.8619196415 -1.9919965267 -0.9909220934
0.8524698615 -1.9911282063 -0.9888137579
0.8455144167 -1.9940916300 -0.9888137579
0.8385484219 -1.9970309734 -0.9888137579
0.8322704434 -1.9996554852 -0.9888137579
0.8252853751 -2.0025484562 -0.9888137579
0.8182899952 -2.0054171085 -0.9888137579
0.8129934669 -2.0124604702 -0.9909220934
0.8076578379 -2.0194916725 -0.9930304885
0.8022826910 -2.0265097618 -0.9951387644
0.7968686223 -2.0335152149 -0.9972471595
0.7914151549 -2.0405070782 -0.9993554354
0.7859228253 -2.0474860668 -1.0014638901
0.7803913951 -2.0544509888 -1.0035721064
0.7748206854 -2.0614027977 -1.0056805611
0.7692111135 -2.0683400631 -1.0077887774
0.7619863749 -2.0710127354 -1.0077887774
0.7563137412 -2.0779163837 -1.0098972321
0.7490559816 -2.0805437565 -1.0098972321
0.7417888045 -2.0831458569 -1.0098972321
0.7345128655 -2.0857224464 -1.0098972321
0.7257261872 -2.0839958191 -1.0077887774
0.7184473872 -2.0865163803 -1.0077887774
0.7096882463 -2.0847232342 -1.0056805611
0.7009501457 -2.0828943253 -1.0035721064
0.6922337413 -2.0810301304 -1.0014638901
0.6835386157 -2.0791301727 -0.9993554354
0.6762770414 -2.0815033913 -0.9993554354
0.6676108241 -2.0795381069 -0.9972471595
0.6603476405 -2.0818560123 -0.9972471595
0.6530766487 -2.0841484070 -0.9972471595
0.6457974911 -2.0864152908 -0.9972471595
0.6385107040 -2.0886569023 -0.9972471595
0.6312161684 -2.0908730030 -0.9972471595
0.6239136457 -2.0930635929 -0.9972471595
0.6166037917 -2.0952286720 -0.9972471595
0.6100184321 -2.0971553326 -0.9972471595
0.6026943922 -2.0992720127 -0.9972471595
0.5946292877 -2.1015706062 -0.9972471595
0.5880240798 -2.1034283638 -0.9972471595
0.5806779861 -2.1054682732 -0.9972471595
0.5733250976 -2.1074821949 -0.9972471595
0.5659652352 -2.1094706059 -0.9972471595
0.5585981607 -2.1114335060 -0.9972471595
0.5512245893 -2.1133704185 -0.9972471595
0.5427042842 -2.1108934879 -0.9951387644
0.5353326797 -2.1127750874 -0.9951387644
0.5279545784 -2.1146306992 -0.9951387644
0.5205697417 -2.1164608002 -0.9951387644
0.5131788254 -2.1182651520 -0.9951387644
0.5057814121 -2.1200435162 -0.9951387644
0.4994257689 -2.1262073517 -0.9972471595
0.4920009971 -2.1279375553 -0.9972471595
0.4845699370 -2.1296420097 -0.9972471595
0.4771332443 -2.1313204765 -0.9972471595
0.4706763625 -2.1373982430 -0.9993554354
0.4632126987 -2.1390280724 -0.9993554354
0.4557434022 -2.1406319141 -0.9993554354
0.4482682347 -2.1422097683 -0.9993554354
0.4407879114 -2.1437613964 -0.9993554354
0.4333019555 -2.1452870369 -0.9993554354
0.4258109629 -2.1467864513 -0.9993554354
0.4183148146 -2.1482598782 -0.9993554354
0.4108132720 -2.1497068405 -0.9993554354
0.4040577412 -2.1509869099 -0.9993554354
0.3966264129 -2.1569795609 -1.0014638901
0.3890948594 -2.1583509445 -1.0014638901
0.3815585375 -2.1596958637 -1.0014638901
0.3740172982 -2.1610147953 -1.0014638901
0.3664717972 -2.1623070240 -1.0014638901
0.3589215279 -2.1635732651 -1.0014638901
0.3521226943 -2.1646900177 -1.0014638901
0.3445644975 -2.1659059525 -1.0014638901
0.3370020688 -2.1670956612 -1.0014638901
0.3294352889 -2.1682586670 -1.0014638901
0.3218647540 -2.1693954468 -1.0014638901
0.3142900169 -2.1705057621 -1.0014638901
0.3067117333 -2.1715896130 -1.0014638901
0.2997591197 -2.1771366596 -1.0035721064
0.2921574712 -2.1781699657 -1.0035721064
0.2845526040 -2.1791763306 -1.0035721064
0.2769439518 -2.1801564693 -1.0035721064
0.2693322003 -2.1811099052 -1.0035721064
0.2617171705 -2.1820366383 -1.0035721064
0.2540986836 -2.1829369068 -1.0035721064
0.2464773804 -2.1838107109 -1.0035721064
0.2388527840 -2.1846575737 -1.0035721064
0.2312255651 -2.1854782104 -1.0035721064
0.2240678668 -2.1907811165 -1.0056805611
0.2164190859 -2.1915500164 -1.0056805611
0.2087679356 -2.1922919750 -1.0056805611
0.2011139691 -2.1930074692 -1.0056805611
0.1938671470 -2.1982111931 -1.0077887774
0.1861928999 -2.1988744736 -1.0077887774
0.1781383008 -2.1949932575 -1.0056805611
0.1704753786 -2.1956017017 -1.0056805611
0.1628100872 -2.1961832047 -1.0056805611
0.1551430970 -2.1967382431 -1.0056805611
0.1477888972 -2.2017891407 -1.0077887774
0.1401021332 -2.2022914886 -1.0077887774
0.1326970756 -2.2072923183 -1.0098972321
0.1249912009 -2.2077419758 -1.0098972321
0.1175355911 -2.2126915455 -1.0120054483
0.1098112613 -2.2130882740 -1.0120054483
0.1020852923 -2.2134580612 -1.0120054483
0.0943583772 -2.2138009071 -1.0120054483
0.0866300166 -2.2141168118 -1.0120054483
0.0790733621 -2.2189362049 -1.0141139030
0.0713274702 -2.2191987038 -1.0141139030
0.0635804087 -2.2194342613 -1.0141139030
0.0558328666 -2.2196426392 -1.0141139030
0.0480843484 -2.2198240757 -1.0141139030
0.0403355435 -2.2199783325 -1.0141139030
0.0333610736 -2.2200942039 -1.0141139030
0.0256114155 -2.2201969624 -1.0141139030
0.0178611483 -2.2202730179 -1.0141139030
0.0101109585 -2.2203216553 -1.0141139030
0.0023603498 -2.2203435898 -1.0141139030
-0.0053899917 -2.2248718739 -1.0162222385
-0.0131560927 -2.2248394489 -1.0162222385
-0.0209539812 -2.2293138504 -1.0183305740
-0.0287354924 -2.2292270660 -1.0183305740
-0.0365802497 -2.2336463928 -1.0204389095
-0.0443767868 -2.2335050106 -1.0204389095
-0.0521727875 -2.2333364487 -1.0204389095
-0.0599684455 -2.2331407070 -1.0204389095
-0.0677630752 -2.2329177856 -1.0204389095
-0.0756995976 -2.2371993065 -1.0225472450
-0.0835082978 -2.2369215488 -1.0225472450
-0.0913159847 -2.2366163731 -1.0225472450
-0.0991228521 -2.2362840176 -1.0225472450
-0.1069282144 -2.2359244823 -1.0225472450
-0.1147325784 -2.2355375290 -1.0225472450
-0.1225352436 -2.2351233959 -1.0225472450
-0.1303364187 -2.2346820831 -1.0225472450
-0.1381362975 -2.2342133522 -1.0225472450
-0.1459341943 -2.2337176800 -1.0225472450
-0.1537306160 -2.2331945896 -1.0225472450
-0.1615248621 -2.2326443195 -1.0225472450
-0.1693171412 -2.2320671082 -1.0225472450
-0.1771076620 -2.2314624786 -1.0225472450
-0.1852593124 -2.2353496552 -1.0246555805
-0.1930611879 -2.2346892357 -1.0246555805
-0.2008604109 -2.2340018749 -1.0246555805
-0.2086571902 -2.2332870960 -1.0246555805
-0.2168783993 -2.2370588779 -1.0267639160
-0.2246857435 -2.2362880707 -1.0267639160
-0.2324906588 -2.2354900837 -1.0267639160
-0.2402924448 -2.2346651554 -1.0267639160
-0.2480912954 -2.2338125706 -1.0267639160
-0.2558874190 -2.2329330444 -1.0267639160
-0.2636801302 -2.2320263386 -1.0267639160
-0.2714699209 -2.2310922146 -1.0267639160
-0.2792561352 -2.2301309109 -1.0267639160
-0.2876071632 -2.2336406708 -1.0288723707
-0.2954024374 -2.2326231003 -1.0288723707
-0.3031938374 -2.2315783501 -1.0288723707
-0.3115971088 -2.2349982262 -1.0309805870
-0.3193967044 -2.2338969707 -1.0309805870
-0.3271923959 -2.2327682972 -1.0309805870
-0.3349843919 -2.2316126823 -1.0309805870
-0.3427720070 -2.2304298878 -1.0309805870
-0.3505557477 -2.2292196751 -1.0309805870
-0.3590441644 -2.2324604988 -1.0330890417
-0.3668346107 -2.2311935425 -1.0330890417
-0.3746208847 -2.2298994064 -1.0330890417
-0.3831583560 -2.2330484390 -1.0351973772
-0.3909509778 -2.2316973209 -1.0351973772
-0.3987385631 -2.2303190231 -1.0351973772
-0.4065212905 -2.2289135456 -1.0351973772
-0.4142993391 -2.2274808884 -1.0351973772
-0.4220720530 -2.2260212898 -1.0351973772
-0.4306894839 -2.2289879322 -1.0373057127
-0.4384673536 -2.2274708748 -1.0373057127
-0.4462398887 -2.2259268761 -1.0373057127
-0.4540072978 -2.2243556976 -1.0373057127
-0.4617688656 -2.2227573395 -1.0373057127
-0.4695250988 -2.2211318016 -1.0373057127
-0.4763326645 -2.2150444984 -1.0351973772
-0.4840615988 -2.2133684158 -1.0351973772
-0.4908113778 -2.2072372437 -1.0330890417
-0.4975239635 -2.2010860443 -1.0309805870
-0.5041999221 -2.1949148178 -1.0288723707
-0.5108385086 -2.1887238026 -1.0267639160
-0.5184753537 -2.1869273186 -1.0267639160
-0.5250554681 -2.1806938648 -1.0246555805
-0.5315981507 -2.1744413376 -1.0225472450
-0.5391852856 -2.1725723743 -1.0225472450
-0.5456687212 -2.1662778854 -1.0204389095
-0.5521149039 -2.1599647999 -1.0183305740
-0.5585238338 -2.1536328793 -1.0162222385
-0.5641456842 -2.1474800110 -1.0141139030
-0.5704815984 -2.1411139965 -1.0120054483
-0.5767803192 -2.1347298622 -1.0098972321
-0.5830410719 -2.1283278465 -1.0077887774
-0.5892642736 -2.1219086647 -1.0056805611
-0.5954499841 -2.1154713631 -1.0035721064
-0.6015977263 -2.1090171337 -1.0014638901
-0.6077078581 -2.1025457382 -0.9993554354
-0.6137799621 -2.0960576534 -0.9972471595
-0.6198141575 -2.0895526409 -0.9951387644
-0.6258107424 -2.0830309391 -0.9930304885
-0.6317690611 -2.0764930248 -0.9909220934
-0.6390137076 -2.0742750168 -0.9909220934
-0.6449111700 -2.0677006245 -0.9888137579
-0.6521247029 -2.0654368401 -0.9888137579
-0.6579612494 -2.0588257313 -0.9867053628
-0.6651437879 -2.0565166473 -0.9867053628
-0.6709190011 -2.0498700142 -0.9845970869
-0.6766555905 -2.0432081223 -0.9824886918
-0.6837835312 -2.0408337116 -0.9824886918
-0.6901686788 -2.0338962078 -0.9803804159
-0.6965549588 -2.0317180157 -0.9803804159
-0.7036429048 -2.0292739868 -0.9803804159
-0.7107219696 -2.0268056393 -0.9803804159
-0.7162879109 -2.0200355053 -0.9782720208
-0.7233349681 -2.0175228119 -0.9782720208
-0.7303729057 -2.0149855614 -0.9782720208
-0.7358531356 -2.0081629753 -0.9761637449
-0.7428583503 -2.0055823326 -0.9761637449
-0.7482756376 -1.9987269640 -0.9740553498
-0.7536544204 -1.9918584824 -0.9719470143
-0.7606025934 -1.9892156124 -0.9719470143
-0.7659184933 -1.9823151827 -0.9698386192
-0.7728332877 -1.9796295166 -0.9698386192
-0.7797386646 -1.9769197702 -0.9698386192
-0.7866348028 -1.9741859436 -0.9698386192
-0.7935211062 -1.9714280367 -0.9698386192
-0.7993866205 -1.9641629457 -0.9677302241
-0.8055532575 -1.9616419077 -0.9677302241
-0.8106694818 -1.9546258450 -0.9656219482
-0.8174876571 -1.9517841339 -0.9656219482
-0.8225400448 -1.9447385073 -0.9635135531
-0.8293235898 -1.9418554306 -0.9635135531
-0.8360968232 -1.9389487505 -0.9635135531
-0.8410607576 -1.9318571091 -0.9614052773
-0.8477991819 -1.9289094210 -0.9614052773
-0.8526989222 -1.9217894077 -0.9592968822
-0.8594021797 -1.9188011885 -0.9592968822
-0.8660947084 -1.9157896042 -0.9592968822
-0.8709052205 -1.9086253643 -0.9571886063
-0.8775624633 -1.9055737257 -0.9571886063
-0.8842086792 -1.9024988413 -0.9571886063
-0.8908444047 -1.8994007111 -0.9571886063
-0.8981307745 -1.8959661722 -0.9571886063
-0.9027988911 -1.8887239695 -0.9550802112
-0.9093861580 -1.8855611086 -0.9550802112
-0.9153053761 -1.8826949596 -0.9550802112
-0.9218717813 -1.8794883490 -0.9550802112
-0.9284266829 -1.8762589693 -0.9550802112
-0.9349703193 -1.8730068207 -0.9550802112
-0.9415027499 -1.8697316647 -0.9550802112
-0.9459807873 -1.8623864651 -0.9529718757
-0.9524761438 -1.8590730429 -0.9529718757
-0.9589595795 -1.8557369709 -0.9529718757
-0.9654313922 -1.8523783684 -0.9529718757
-0.9718916416 -1.8489969969 -0.9529718757
-0.9762267470 -1.8415819407 -0.9508634806
-0.9826492667 -1.8381628990 -0.9508634806
-0.9890595675 -1.8347216845 -0.9508634806
-0.9954577684 -1.8312581778 -0.9508634806
-1.0018441677 -1.8277721405 -0.9508634806
-1.0082180500 -1.8242639303 -0.9508634806
-1.0123833418 -1.8167674541 -0.9487552047
-1.0187188387 -1.8132225275 -0.9487552047
-1.0228174925 -1.8057048321 -0.9466468096
-1.0291144848 -1.8021234274 -0.9466468096
-1.0353987217 -1.7985202074 -0.9466468096
-1.0416705608 -1.7948949337 -0.9466468096
-1.0479295254 -1.7912479639 -0.9466468096
-1.0564686060 -1.7914904356 -0.9487552047
-1.0650222301 -1.7916947603 -0.9508634806
-1.0689496994 -1.7840713263 -0.9487552047
-1.2221376896 -1.9934043884 -1.0689308643
-1.2338371277 -1.9968507290 -1.0731475353
-1.2384121418 -1.9886777401 -1.0710391998
-1.2477476597 -1.9881882668 -1.0731475353
-1.2522655725 -1.9799835682 -1.0710391998
-1.2591692209 -1.9756003618 -1.0710391998
-1.2660578489 -1.9711929560 -1.0710391998
-1.2729307413 -1.9667615891 -1.0710391998
-1.2797884941 -1.9623061419 -1.0710391998
-1.2891113758 -1.9616215229 -1.0731475353
-1.2959507704 -1.9571096897 -1.0731475353
-1.3027746677 -1.9525740147 -1.0731475353
-1.3095823526 -1.9480146170 -1.0731475353
-1.3170526028 -1.9429718256 -1.0731475353
-1.3231500387 -1.9388246536 -1.0731475353
-1.3299096823 -1.9341942072 -1.0731475353
-1.3392266035 -1.9332729578 -1.0752558708
-1.3492273092 -1.9318392277 -1.0773642063
-1.3559623957 -1.9271178246 -1.0773642063
-1.3626809120 -1.9223729372 -1.0773642063
-1.3693830967 -1.9176045656 -1.0773642063
-1.3760683537 -1.9128128290 -1.0773642063
-1.3827370405 -1.9079977274 -1.0773642063
-1.3893886805 -1.9031594992 -1.0773642063
-1.3960233927 -1.8982981443 -1.0773642063
-1.4026414156 -1.8934134245 -1.0773642063
-1.4092419147 -1.8885058165 -1.0773642063
-1.4158256054 -1.8835750818 -1.0773642063
-1.4251203537 -1.8822423220 -1.0794725418
-1.4316818714 -1.8772563934 -1.0794725418
-1.4409798384 -1.8758491278 -1.0815809965
-1.4475189447 -1.8708077669 -1.0815809965
-1.4540405273 -1.8657435179 -1.0815809965
-1.4605442286 -1.8606566191 -1.0815809965
-1.4670301676 -1.8555471897 -1.0815809965
-1.4734982252 -1.8504149914 -1.0815809965
-1.4799487591 -1.8452599049 -1.0815809965
-1.4863808155 -1.8400827646 -1.0815809965
-1.4927947521 -1.8348832130 -1.0815809965
-1.4991905689 -1.8296613693 -1.0815809965
-1.5055680275 -1.8244171143 -1.0815809965
-1.5119276047 -1.8191502094 -1.0815809965
-1.5211703777 -1.8173447847 -1.0836892128
-1.5275046825 -1.8120238781 -1.0836892128
-1.5338205099 -1.8066809177 -1.0836892128
-1.5401175022 -1.8013160229 -1.0836892128
-1.5463962555 -1.7959287167 -1.0836892128
-1.5556182861 -1.7939519882 -1.0857976675
-1.5618706942 -1.7885110378 -1.0857976675
-1.5681041479 -1.7830482721 -1.0857976675
-1.5773166418 -1.7809644938 -1.0879060030
-1.5835241079 -1.7754474878 -1.0879060030
-1.5897119045 -1.7699091434 -1.0879060030
-1.5958802700 -1.7643493414 -1.0879060030
-1.6020292044 -1.7587680817 -1.0879060030
-1.6081585884 -1.7531652451 -1.0879060030
-1.6173377037 -1.7508780956 -1.0900143385
-1.6234394312 -1.7452219725 -1.0900143385
-1.6295213699 -1.7395445108 -1.0900143385
-1.6386870146 -1.7371507883 -1.0921226740
-1.6447407007 -1.7314202785 -1.0921226740
-1.6507748365 -1.7256680727 -1.0921226740
-1.6567884684 -1.7198953629 -1.0921226740
-1.6627818346 -1.7141017914 -1.0921226740
-1.6687549353 -1.7082872391 -1.0921226740
-1.6747076511 -1.7024518251 -1.0921226740
-1.6806404591 -1.6965953112 -1.0921226740
-1.6865524054 -1.6907185316 -1.0921226740
-1.6956496239 -1.6880270243 -1.0942310095
-1.7015315294 -1.6820979118 -1.0942310095
-1.7073926926 -1.6761482954 -1.0942310095
-1.7164726257 -1.6733498573 -1.0963393450
-1.7223032713 -1.6673481464 -1.0963393450
-1.7313741446 -1.6644755602 -1.0984476805
-1.7371736765 -1.6584219933 -1.0984476805
-1.7429518700 -1.6523480415 -1.0984476805
-1.7520034313 -1.6493686438 -1.1005560160
-1.7577500343 -1.6432429552 -1.1005560160
-1.7667911053 -1.6401895285 -1.1026643515
-1.7758320570 -1.6370927095 -1.1047726870
-1.7781984806 -1.6278152466 -1.1026643515
-1.7838701010 -1.6215978861 -1.1026643515
-0.7361156940 -0.6509332061 -0.4385357201
-0.7383833528 -0.6483597755 -0.4385357201
-0.7406421900 -0.6457781792 -0.4385357201
-0.7394806147 -0.6402026415 -0.4364273846
-0.7451324463 -0.6405919194 -0.4385357201
-0.7507959604 -0.6409494877 -0.4406440854
-0.7530286908 -0.6383248568 -0.4406440854
-0.7552524209 -0.6356922984 -0.4406440854
-0.7609295845 -0.6359784603 -0.4427524209
-0.7631449103 -0.6333184838 -0.4427524209
-0.7688341141 -0.6335529089 -0.4448607564
-0.7745342255 -0.6337552667 -0.4469690919
-0.7802452445 -0.6339253187 -0.4490774572
-0.7859666944 -0.6340633631 -0.4511857927
-0.7881751657 -0.6313160062 -0.4511857927
-0.7941277027 -0.6311246157 -0.4532941282
-0.7998700738 -0.6311760545 -0.4554024637
-0.8056224585 -0.6311950684 -0.4575108290
-0.8113849163 -0.6311814189 -0.4596191943
-0.8171567917 -0.6311354041 -0.4617275596
-0.8229381442 -0.6310566664 -0.4638358951
-0.8287289143 -0.6309452653 -0.4659442306
-0.8309262395 -0.6280486584 -0.4659442306
-0.8367258310 -0.6278840303 -0.4680525661
-0.8389124274 -0.6249595284 -0.4680525661
-0.8447200656 -0.6247419715 -0.4701609313
-0.8468956351 -0.6217895746 -0.4701609313
-0.8490608931 -0.6188296080 -0.4701609313
-0.8548754454 -0.6185382605 -0.4722692668
-0.8570293188 -0.6155504584 -0.4722692668
-0.8628508449 -0.6152059436 -0.4743776023
-0.8686802983 -0.6148282290 -0.4764859378
-0.8708211184 -0.6117922664 -0.4764859378
-0.8766571879 -0.6113607287 -0.4785943031
-0.8825005889 -0.6108961105 -0.4807026386
-0.8846275806 -0.6078119278 -0.4807026386
-0.8904765844 -0.6072935462 -0.4828109741
-0.8963327408 -0.6067416072 -0.4849193096
-0.8984453678 -0.6036089659 -0.4849193096
-0.9005468488 -0.6004691720 -0.4849193096
-0.9026373625 -0.5973220468 -0.4849193096
-0.9047168493 -0.5941677094 -0.4849193096
-0.9105712175 -0.5935004950 -0.4870276749
-0.9126374722 -0.5903182030 -0.4870276749
-0.9146924615 -0.5871289372 -0.4870276749
-0.9205480814 -0.5863871574 -0.4891360104
-0.9225893617 -0.5831703544 -0.4891360104
-0.9284481406 -0.5823743343 -0.4912443459
-0.9304754734 -0.5791296959 -0.4912443459
-0.9363369942 -0.5782794356 -0.4933526814
-0.9383498430 -0.5750075579 -0.4933526814
-0.9442135692 -0.5741029382 -0.4954610467
-0.9462118149 -0.5708035827 -0.4954610467
-0.9520774484 -0.5698442459 -0.4975693822
-0.9540607333 -0.5665174127 -0.4975693822
-0.9560323954 -0.5631837249 -0.4975693822
-0.9579924345 -0.5598431826 -0.4975693822
-0.9640470147 -0.5584521294 -0.4996777177
-0.9659904838 -0.5550836325 -0.4996777177
-0.9679222107 -0.5517083406 -0.4996777177
-0.9698422551 -0.5483260751 -0.4996777177
-0.9756939411 -0.5471740961 -0.5017860532
-0.9775979519 -0.5437650084 -0.5017860532
-0.9794900417 -0.5403493047 -0.5017860532
-0.9813702703 -0.5369269848 -0.5017860532
-0.9830522537 -0.5338411331 -0.5017860532
-0.9850948453 -0.5300625563 -0.5017860532
-0.9909287095 -0.5287743211 -0.5038943887
-0.9927684069 -0.5253121853 -0.5038943887
-0.9945960045 -0.5218436122 -0.5038943887
-0.9964116216 -0.5183684230 -0.5038943887
-1.0022342205 -0.5169848800 -0.5060027242
-1.0040327311 -0.5134832859 -0.5060027242
-1.0058189631 -0.5099754930 -0.5060027242
-1.0075929165 -0.5064615011 -0.5060027242
-1.0134030581 -0.5049823523 -0.5081111193
-1.0151594877 -0.5014418960 -0.5081111193
-1.0209660530 -0.4999083579 -0.5102194548
-1.0227047205 -0.4963415265 -0.5102194548
-1.0285073519 -0.4947532713 -0.5123277903
-1.0302281380 -0.4911598861 -0.5123277903
-1.0319364071 -0.4875607789 -0.5123277903
-1.0336319208 -0.4839557409 -0.5123277903
-1.0394186974 -0.4822723567 -0.5144361854
-1.0410957336 -0.4786412120 -0.5144361854
-1.0427602530 -0.4750039876 -0.5144361854
-1.0485354662 -0.4732456505 -0.5165445209
-1.0501810312 -0.4695827663 -0.5165445209
-1.0559504032 -0.4677697420 -0.5186528563
-1.0575767756 -0.4640809894 -0.5186528563
-1.0633398294 -0.4622129798 -0.5207611918
-1.0649467707 -0.4584984779 -0.5207611918
-1.0665407181 -0.4547783732 -0.5207611918
-1.0681216717 -0.4510527551 -0.5207611918
-1.0696896315 -0.4473216236 -0.5207611918
-1.0712445974 -0.4435847402 -0.5207611918
-1.0729399920 -0.4394681752 -0.5207611918
-1.0744674206 -0.4357202947 -0.5207611918
-1.0758309364 -0.4323427677 -0.5207611918
-1.0816884041 -0.4299026430 -0.5228695273
-1.0831824541 -0.4261242747 -0.5228695273
-1.0846633911 -0.4223404229 -0.5228695273
-1.0861310959 -0.4185517430 -0.5228695273
-1.0875854492 -0.4147579372 -0.5228695273
-1.1059638262 -0.4174403548 -0.5313029289
-1.0650146008 -0.3975220323 -0.5102194548
-1.0281860828 -0.3794853687 -0.4912443459
-1.0295045376 -0.3758940697 -0.4912443459
-1.0308103561 -0.3722981811 -0.4912443459
-1.0789850950 -0.3857056797 -0.5144361854
-1.1272654533 -0.3987811506 -0.5376279354
-1.1158326864 -0.3902944624 -0.5313029289
-1.1257441044 -0.3894000649 -0.5355195999
-1.1313796043 -0.3869546950 -0.5376279354
-1.1370116472 -0.3844746947 -0.5397362709
-1.1426402330 -0.3819600642 -0.5418446064
-1.1396681070 -0.3765273690 -0.5397362709
-1.1409754753 -0.3725469410 -0.5397362709
-1.1422690153 -0.3685619831 -0.5397362709
-1.1392351389 -0.3631760478 -0.5376279354
-1.1361777782 -0.3578158021 -0.5355195999
-1.1374199390 -0.3538473845 -0.5355195999
-1.1343204975 -0.3485237062 -0.5334112644
-1.1311976910 -0.3432259858 -0.5313029289
-1.1280518770 -0.3379543424 -0.5291945934
-1.1248830557 -0.3327088654 -0.5270862579
-1.1216914654 -0.3274893463 -0.5249778628
-1.1184772253 -0.3222964704 -0.5228695273
-1.1152403355 -0.3171300292 -0.5207611918
-1.1119810343 -0.3119901419 -0.5186528563
-1.1086995602 -0.3068768680 -0.5165445209
-1.1053961515 -0.3017900586 -0.5144361854
-1.0976982117 -0.2955309153 -0.5102194548
-1.0899703503 -0.2893292606 -0.5060027242
-1.0865931511 -0.2843540013 -0.5038943887
-1.0789071321 -0.2778756917 -0.4996777177
-1.0710926056 -0.2718345821 -0.4954610467
-1.0720349550 -0.2680941522 -0.4954610467
-1.0729643106 -0.2643502057 -0.4954610467
-1.0738805532 -0.2606033087 -0.4954610467
-1.0747836828 -0.2568532228 -0.4954610467
-1.0756736994 -0.2531000376 -0.4954610467
-1.0765506029 -0.2493437380 -0.4954610467
-1.0729990005 -0.2445550114 -0.4933526814
-1.0738461018 -0.2408081144 -0.4933526814
-1.0658352375 -0.2350617349 -0.4891360104
-1.0710752010 -0.2323227227 -0.4912443459
-1.0718796253 -0.2285826206 -0.4912443459
-1.0726710558 -0.2248394340 -0.4912443459
-2.5728132725 -0.5376059413 -1.2038649321
-2.5587339401 -0.5160099268 -1.1954315901
-2.5160639286 -0.4981759787 -1.1743481159
-2.5133390427 -0.4885153472 -1.1722397804
-2.5239322186 -0.4814570248 -1.1764564514
-2.5122334957 -0.4701140821 -1.1701313257
-2.5094017982 -0.4605142772 -1.1680231094
-2.5020730495 -0.4501277506 -1.1638064384
-2.4948561192 -0.4389269948 -1.1595897675
-2.4919068813 -0.4294356108 -1.1574813128
-2.4933905602 -0.4207347631 -1.1574813128
-2.4993157387 -0.4127770662 -1.1595897675
-2.5007412434 -0.4040504396 -1.1595897675
-2.5021364689 -0.3953188956 -1.1595897675
-2.5079803467 -0.3872832656 -1.1616979837
-2.5093169212 -0.3785265684 -1.1616979837
-2.5151069164 -0.3704353869 -1.1638064384
-2.5163846016 -0.3616538942 -1.1638064384
-2.5176317692 -0.3528680205 -1.1638064384
-2.5188481808 -0.3440771401 -1.1638064384
-2.5155408382 -0.3346753120 -1.1616979837
-2.5166938305 -0.3258925080 -1.1616979837
-2.5178160667 -0.3171057701 -1.1616979837
-2.5189075470 -0.3083151579 -1.1616979837
-2.5244693756 -0.3000648022 -1.1638064384
-2.5255014896 -0.2912510633 -1.1638064384
-2.5265028477 -0.2824337780 -1.1638064384
-2.5319795609 -0.2741105258 -1.1659146547
-2.5329208374 -0.2652707398 -1.1659146547
-2.5338313580 -0.2564270496 -1.1659146547
-2.5347111225 -0.2475808859 -1.1659146547
-2.5400729179 -0.2391662747 -1.1680231094
-2.5408921242 -0.2302984446 -1.1680231094
-2.5416805744 -0.2214278132 -1.1680231094
-2.5424380302 -0.2125537992 -1.1680231094
-2.5431644917 -0.2036778778 -1.1680231094
-2.5438599586 -0.1947994679 -1.1680231094
-2.5445244312 -0.1859186888 -1.1680231094
-2.5451579094 -0.1770356447 -1.1680231094
-2.5502836704 -0.1684581190 -1.1701313257
-2.5509116650 -0.1586644650 -1.1701313257
-2.5559754372 -0.1500344872 -1.1722397804
-2.5564835072 -0.1411116868 -1.1722397804
-2.5614876747 -0.1324307770 -1.1743481159
-2.5709903240 -0.1239444315 -1.1785647869
-2.5759363174 -0.1151806861 -1.1806731224
-2.5899109840 -0.1067769602 -1.1869981289
-2.5902678967 -0.0977359712 -1.1869981289
-2.5860626698 -0.0885292441 -1.1848897934
-2.6044812202 -0.0800967366 -1.1933232546
-0.6379435062 -0.0133184530 -0.2783015072
-0.6334539056 -0.0109744696 -0.2761931717
-0.6198905110 -0.0084594414 -0.2698681355
-0.6199162602 -0.0062956009 -0.2698681355
-0.6199344397 -0.0041316841 -0.2698681355
-0.6154116988 -0.0019137459 -0.2677598000
-0.6154146194 0.0002344207 -0.2677598000
-0.6108763218 0.0024047403 -0.2656514645
-0.6063305140 0.0045433799 -0.2635431290
-0.6017771959 0.0066503133 -0.2614347637
-0.6017503142 0.0087509956 -0.2614347637
-0.5971787572 0.0110186050 -0.2593264282
-0.5971366167 0.0131032076 -0.2593264282
-0.5925541520 0.0151131144 -0.2572180927
-0.5879648924 0.0170911886 -0.2551097274
-0.5879016519 0.0191434342 -0.2551097274
-0.5742349029 0.0208299160 -0.2487846911
-0.5546101928 0.3507538140 -0.2867349088
-0.5687550902 0.3623084128 -0.2951682806
-0.5713215470 0.3667102456 -0.2972766161
-0.5853431225 0.3784301579 -0.3057099879
-0.5840186477 0.3804710507 -0.3057099879
-0.5788778067 0.3800486922 -0.3036016524
-0.5775476694 0.3820669949 -0.3036016524
-0.5762103796 0.3840807974 -0.3036016524
-0.5710830092 0.3835914135 -0.3014933169
-0.5697405338 0.3855825067 -0.3014933169
-0.5646254420 0.3850441575 -0.2993849814
-0.5632779598 0.3870126903 -0.2993849814
-0.5581755638 0.3864257038 -0.2972766161
-0.5568232536 0.3883717060 -0.2972766161
-0.5554642081 0.3903129697 -0.2972766161
-0.5540984273 0.3922494948 -0.2972766161
-0.5527258515 0.3941812515 -0.2972766161
-0.5476435423 0.3934923708 -0.2951682806
-0.5462666750 0.3954015672 -0.2951682806
-0.5448831916 0.3973059654 -0.2951682806
-0.5434930325 0.3992055058 -0.2951682806
-0.5420962572 0.4011001885 -0.2951682806
-0.5406927466 0.4029901326 -0.2951682806
-0.5392827988 0.4048750103 -0.2951682806
-0.5378662348 0.4067549706 -0.2951682806
-0.5364431739 0.4086299539 -0.2951682806
-0.5350135565 0.4104999900 -0.2951682806
-0.5299679041 0.4096215069 -0.2930599451
-0.5285348892 0.4114689231 -0.2930599451
-0.5235052705 0.4105425775 -0.2909516096
-0.5219250321 0.4125496745 -0.2909516096
-0.5204818249 0.4143689871 -0.2909516096
-0.5190322399 0.4161832631 -0.2909516096
-0.5175762177 0.4179925919 -0.2909516096
-0.5161140561 0.4197967052 -0.2909516096
-0.5181759000 0.4244402349 -0.2930599451
-0.5166912079 0.4262464046 -0.2930599451
-0.5152001977 0.4280473590 -0.2930599451
-0.5137028098 0.4298432469 -0.2930599451
-0.5121992826 0.4316337705 -0.2930599451
-0.5106894970 0.4334190190 -0.2930599451
-0.5126434565 0.4381168485 -0.2951682806
-0.5111110806 0.4399036169 -0.2951682806
-0.5095723271 0.4416851699 -0.2951682806
-0.5114666820 0.4464152455 -0.2972766161
-0.5099053383 0.4481978416 -0.2972766161
-0.5117563009 0.4529529810 -0.2993849814
-0.5101720691 0.4547365308 -0.2993849814
-0.5085815787 0.4565147161 -0.2993849814
-0.5103721023 0.4613008201 -0.3014933169
-0.5087587833 0.4630795121 -0.3014933169
-0.5105053186 0.4678897560 -0.3036016524
-0.5055135489 0.4666199386 -0.3014933169
-0.4971920550 0.4622605443 -0.2972766161
-0.4622348249 0.4332704246 -0.2761931717
-0.4706895649 0.4441329539 -0.2825182080
-0.5103617907 0.4944815338 -0.3120350540
-0.5053635836 0.4931185246 -0.3099266887
-0.4971232116 0.4885739088 -0.3057099879
-0.4889208376 0.4839778543 -0.3014933169
-0.4998942316 0.5050612688 -0.3120350540
-0.5077356696 0.5164307356 -0.3183600903
-0.5059298873 0.5181998610 -0.3183600903
-0.4977578521 0.5134999156 -0.3141433895
-0.4769501686 0.4957788587 -0.3014933169
-0.4596678615 0.5057334900 -0.2993849814
-0.4333867431 0.4806024134 -0.2825182080
