-7.4485726357 -1.7341728210 -0.1806156784
-7.4984288216 -1.7182210684 -0.1816837192
-7.5482640266 -1.7019422054 -0.1827517450
-7.5980763435 -1.6853362322 -0.1838197708
-7.6478643417 -1.6684031487 -0.1848878115
-7.6878519058 -1.6490418911 -0.1857184917
-7.7326879501 -1.6304560900 -0.1866678596
-7.7725925446 -1.6105619669 -0.1874985397
-7.8124523163 -1.5904090405 -0.1883292347
-7.8522658348 -1.5699974298 -0.1891599149
-7.8920321465 -1.5493251085 -0.1899906248
-7.9317483902 -1.5283961296 -0.1908213049
-7.9714145660 -1.5072087049 -0.1916519850
-8.0115470886 -1.4829659462 -0.1924826801
-8.0511007309 -1.4612480402 -0.1933133602
-8.0906000137 -1.4392721653 -0.1941440552
-8.1300449371 -1.4170361757 -0.1949747652
-8.1694316864 -1.3945442438 -0.1958054453
-8.2087593079 -1.3717944622 -0.1966361254
-8.2529611588 -1.3495949507 -0.1975854933
-8.2921714783 -1.3263128996 -0.1984161735
-8.3313198090 -1.3027713299 -0.1992468685
-8.3704032898 -1.2789747715 -0.2000775486
-8.4094238281 -1.2549211979 -0.2009082586
-8.4483766556 -1.2306107283 -0.2017389387
-8.4823122025 -1.2053390741 -0.2024509609
-8.5211267471 -1.1805303097 -0.2032816410
-8.5549173355 -1.1547979116 -0.2039936781
-8.5935869217 -1.1294960976 -0.2048243582
-8.6272249222 -1.1033033133 -0.2055363804
-8.6657457352 -1.0775072575 -0.2063670605
-8.6992282867 -1.0508527756 -0.2070790827
-8.7326307297 -1.0239801407 -0.2077911198
-8.7659502029 -0.9968869090 -0.2085031271
-8.7991867065 -0.9695734978 -0.2092151344
-8.8326683044 -0.9389564395 -0.2099271715
-8.8657255173 -0.9111919403 -0.2106391937
-8.8986959457 -0.8832056522 -0.2113512009
-8.9266033173 -0.8545252085 -0.2119445503
-8.9593963623 -0.8261207938 -0.2126565874
-8.9871206284 -0.7970551252 -0.2132499218
-9.0147504807 -0.7678059936 -0.2138432860
-9.0373029709 -0.7379633784 -0.2143179476
-9.0647401810 -0.7083655000 -0.2149112970
-9.0870962143 -0.6782120466 -0.2153859884
-9.1143379211 -0.6482666731 -0.2159793228
-9.1364946365 -0.6178012490 -0.2164540142
-9.1635360718 -0.5875073671 -0.2170473635
-9.1854887009 -0.5567312241 -0.2175220549
-9.2123279572 -0.5260949731 -0.2181153893
-9.2340745926 -0.4950095415 -0.2185900807
-9.2607069016 -0.4640298188 -0.2191834152
-9.2822437286 -0.4326340258 -0.2196581066
-9.3086662292 -0.4013122618 -0.2202514559
-9.3349828720 -0.3698112667 -0.2208447903
-9.3611936569 -0.3381314874 -0.2214381546
-9.3872966766 -0.3062731624 -0.2220315039
-9.4132909775 -0.2742342651 -0.2226248533
-9.4391756058 -0.2420201004 -0.2232182026
-9.4699468613 -0.2097401917 -0.2239302099
-9.4956102371 -0.1771542281 -0.2245235741
-9.5262079239 -0.1411424428 -0.2252355963
-9.5516338348 -0.1081773043 -0.2258289307
-9.5769462585 -0.0750363916 -0.2264222950
-9.6021413803 -0.0417175330 -0.2270156294
-9.6322202682 -0.0082314564 -0.2277276516
-9.6571836472 0.0254518744 -0.2283210158
-9.6820278168 0.0593093745 -0.2289143503
-9.7067546844 0.0933406353 -0.2295077145
-9.7263612747 0.1274832487 -0.2299823910
-9.7508478165 0.1618433297 -0.2305757552
-9.7702131271 0.1962764114 -0.2310504168
-9.7894582748 0.2308466882 -0.2315251082
-9.8085794449 0.2655536830 -0.2319997698
-9.8275775909 0.3003996015 -0.2324744612
-9.8464517593 0.3353787661 -0.2329491377
-9.8652019501 0.3704933524 -0.2334238291
-9.8788318634 0.4055387974 -0.2337798178
-9.8973312378 0.4409054518 -0.2342545092
-9.9105434418 0.4796274602 -0.2346105278
-9.9237842560 0.5149952173 -0.2349665314
-9.9418907166 0.5507342219 -0.2354412228
-9.9548768997 0.5863128901 -0.2357972115
-9.9677371979 0.6219889522 -0.2361532301
-9.9854555130 0.6580896378 -0.2366278917
-9.9980583191 0.6939791441 -0.2369839102
-10.0105314255 0.7299619913 -0.2373399287
-10.0228738785 0.7660402656 -0.2376959324
-10.0350875854 0.8022136688 -0.2380519509
-10.0521526337 0.8388964534 -0.2385266423
-10.0641012192 0.8752784729 -0.2388826311
-10.0759201050 0.9117516279 -0.2392386496
-10.0876064301 0.9483178258 -0.2395946532
-10.0991601944 0.9849767685 -0.2399506718
-10.1155538559 1.0222295523 -0.2404253483
-10.1268377304 1.0590924025 -0.2407813519
-10.1379890442 1.0960438251 -0.2411373705
-10.1539726257 1.1336395741 -0.2416120321
-10.1648511887 1.1707893610 -0.2419680506
-10.1755943298 1.2080287933 -0.2423240691
-10.1911621094 1.2459658384 -0.2427987456
-10.1912622452 1.2857100964 -0.2429174185
-10.1966266632 1.3225628138 -0.2431547642
-10.2167224884 1.3614438772 -0.2437480986
-5.0488729477 0.7096484900 -0.1200940087
-5.0711040497 0.7308238149 -0.1206873581
-5.0734667778 0.7492503524 -0.1208060160
-5.0708208084 0.7669551969 -0.1208060160
-5.0582327843 0.7831248045 -0.1205686852
-5.0505309105 0.7999960184 -0.1204500124
-5.0378389359 0.8160256743 -0.1202126741
-5.0300278664 0.8327924013 -0.1200940087
-5.0320191383 0.8511770368 -0.1202126741
-5.0290174484 0.8687366247 -0.1202126741
-5.0210313797 0.8854193091 -0.1200940087
-5.0179100037 0.9029403329 -0.1200940087
-5.0098104477 0.9195510149 -0.1199753359
-5.0065703392 0.9370326400 -0.1199753359
-5.0032687187 0.9545028806 -0.1199753359
-5.0048136711 0.9729135036 -0.1200940087
-5.0013871193 0.9903773665 -0.1200940087
-4.9975476265 1.0095740557 -0.1200940087
-4.9890961647 1.0260086060 -0.1199753359
-4.9854846001 1.0434172153 -0.1199753359
-4.9867014885 1.0618524551 -0.1200940087
-4.9829645157 1.0792526007 -0.1200940087
-4.9840488434 1.0977129936 -0.1202126741
-4.9801864624 1.1151049137 -0.1202126741
-4.9811377525 1.1335892677 -0.1203313395
-4.9771509171 1.1509695053 -0.1203313395
-4.9731025696 1.1683357954 -0.1203313395
-4.9981694221 1.1926382780 -0.1210433617
-6.7605471611 1.6875054836 -0.1644765735
-6.7933826447 1.7209031582 -0.1654259264
-6.7776513100 1.7421194315 -0.1651885957
-11.3426656723 2.9564611912 -0.2773317099
-11.3371095657 2.9973127842 -0.2774503827
-11.3217496872 3.0355741978 -0.2773317099
-11.2917900085 3.0698330402 -0.2768570185
-11.2665481567 3.1052472591 -0.2765009999
-11.2406482697 3.1424863338 -0.2761449814
-11.2146272659 3.1795775890 -0.2757889926
-11.1842422485 3.2131860256 -0.2753143013
-11.1681575775 3.2508099079 -0.2751956284
-11.1759223938 3.2954256535 -0.2756703198
-6.9397788048 2.0734112263 -0.1710034162
-6.9612069130 2.1063027382 -0.1717154384
-6.9490327835 2.1291255951 -0.1715967655
-6.9129109383 2.1444902420 -0.1708847433
-11.0213193893 3.4600415230 -0.2732969224
-10.9901189804 3.4924392700 -0.2728222609
-10.9635839462 3.5261936188 -0.2724662423
-10.9607152939 3.5675344467 -0.2727035880
-7.4679288864 2.4601721764 -0.1857184917
-7.4687809944 2.4893836975 -0.1859558374
-7.5026783943 2.5298027992 -0.1870238632
-10.8435974121 3.6976473331 -0.2710421979
-10.8211727142 3.7322173119 -0.2708048522
-10.7891988754 3.7633848190 -0.2703301609
-10.7618551254 3.7960369587 -0.2699741721
-10.7438306808 3.8319005966 -0.2698554993
-10.7209835052 3.8659927845 -0.2696181536
-10.6980295181 3.8999691010 -0.2693808079
-10.6749715805 3.9338328838 -0.2691434920
-10.6504192352 3.9713015556 -0.2689061463
-10.6278352737 4.0030760765 -0.2686688006
-10.6037492752 4.0384435654 -0.2684314549
-10.5662612915 4.0664596558 -0.2678381205
-10.5380239487 4.0978875160 -0.2674821019
-6.6433100700 2.6108295918 -0.1685113460
-6.6759729385 2.6505930424 -0.1695793867
-10.4898948669 4.2061533928 -0.2673634291
-10.4658832550 4.2389926910 -0.2671260834
-10.4510221481 4.2755017281 -0.2671260834
-10.3944530487 4.2947835922 -0.2660580575
-10.3886241913 4.3348884583 -0.2662954032
-10.3596105576 4.3653039932 -0.2659393847
-10.3351097107 4.3975257874 -0.2657020390
-10.3105096817 4.4296326637 -0.2654646933
-10.2903985977 4.4636073112 -0.2653460205
-10.2655973434 4.4954915047 -0.2651087046
-10.2772750854 4.5434188843 -0.2658207119
-5.5692243576 2.5330395699 -0.1443026811
-5.5921525955 2.5670518875 -0.1451333612
-5.5831580162 2.5865561962 -0.1451333612
-5.5423936844 2.5912194252 -0.1443026811
-5.5242714882 2.6062884331 -0.1440653354
-10.0027875900 4.8505272865 -0.2629726529
-9.9902858734 4.8876094818 -0.2630913258
-9.9597158432 4.9158167839 -0.2627353072
-9.9335441589 4.9461002350 -0.2624979615
-9.9117517471 4.9785013199 -0.2623792887
-9.8898553848 5.0108108521 -0.2622606456
-9.8678522110 5.0430278778 -0.2621419728
-9.8457460403 5.0751523972 -0.2620232999
-9.8235340118 5.1071863174 -0.2619046271
-9.8012189865 5.1391248703 -0.2617859542
-9.7788019180 5.1709694862 -0.2616672814
-9.7562808990 5.2027206421 -0.2615486085
-9.7336578369 5.2343773842 -0.2614299357
-9.7109327316 5.2659425735 -0.2613112628
-9.6881055832 5.2974100113 -0.2611925900
-9.6695556641 5.3311953545 -0.2611925900
-9.6334095001 5.3552031517 -0.2607178986
-8.2117662430 4.6405606270 -0.2229808569
-8.1955175400 4.6691961288 -0.2229808569
-8.1748342514 4.6952862740 -0.2228621840
-8.1583957672 4.7237925529 -0.2228621840
-9.4630193710 5.5230293274 -0.2591752112
-9.4695329666 5.5712337494 -0.2598872185
-9.4652681351 5.6177525520 -0.2603618801
-9.4670505524 5.6635875702 -0.2609552443
-4.9350175858 2.9768099785 -0.1358771026
-4.9374122620 3.0018038750 -0.1362331212
-4.9354300499 3.0242409706 -0.1364704669
-4.9546198845 3.0598258972 -0.1373011470
-0.9582439065 0.5981749296 -0.0258700531
-0.9476792812 0.5962065458 -0.0256327111
-0.9075579643 0.5754850507 -0.0245646816
-0.9224104881 0.5893865824 -0.0250393618
-0.9203475714 0.5926027298 -0.0250393618
-0.9182732701 0.5958119035 -0.0250393618
-0.9161878824 0.5990136266 -0.0250393618
-0.9140914083 0.6022080183 -0.0250393618
-0.9119837880 0.6053950787 -0.0250393618
-0.9181841612 0.6141187549 -0.0252767019
-0.8994353414 0.6061742902 -0.0248020217
-0.9055941701 0.6149120927 -0.0250393618
-0.9240937233 0.6321463585 -0.0256327111
-2.0673689842 1.4220511913 -0.0586229637
-2.0541715622 1.4235706329 -0.0583856255
-2.0573906898 1.4364497662 -0.0586229637
-2.0646357536 1.4522408247 -0.0589789711
-2.0473124981 1.4507776499 -0.0586229637
-2.0381655693 1.4550138712 -0.0585042909
-2.0290138721 1.4592039585 -0.0583856255
-2.0198576450 1.4633483887 -0.0582669526
-2.0142238140 1.4710934162 -0.0582669526
-2.0090765953 1.4781152010 -0.0582669526
-2.0119411945 1.4910656214 -0.0585042909
-2.0107319355 1.5010668039 -0.0586229637
-2.0094773769 1.5110775232 -0.0587416328
-2.0081770420 1.5210983753 -0.0588603057
-2.0028550625 1.5280988216 -0.0588603057
-1.9975090027 1.5350806713 -0.0588603057
-1.9921385050 1.5420438051 -0.0588603057
-1.9867436886 1.5489882231 -0.0588603057
-1.9773906469 1.5528298616 -0.0587416328
-1.9719582796 1.5597226620 -0.0587416328
-1.9665018320 1.5665965080 -0.0587416328
-1.9610215425 1.5734511614 -0.0587416328
-1.9555172920 1.5802867413 -0.0587416328
-1.9499888420 1.5871036053 -0.0587416328
-1.9444370270 1.5939005613 -0.0587416328
-1.9427186251 1.6038576365 -0.0588603057
-1.9371083975 1.6106290817 -0.0588603057
-1.9314744473 1.6173809767 -0.0588603057
-1.9258166552 1.6241136789 -0.0588603057
-1.9201358557 1.6308259964 -0.0588603057
-1.9138597250 1.6381868124 -0.0588603057
-1.9081298113 1.6448572874 -0.0588603057
-1.8985995054 1.6482336521 -0.0587416328
-1.8928346634 1.6548508406 -0.0587416328
-1.8870462179 1.6614483595 -0.0587416328
-1.8849779367 1.6713386774 -0.0588603057
-1.8791325092 1.6779083014 -0.0588603057
-1.8732640743 1.6844573021 -0.0588603057
-1.8673729897 1.6909859180 -0.0588603057
-1.8614585400 1.6974942684 -0.0588603057
-1.8555219173 1.7039815187 -0.0588603057
-1.8495627642 1.7104480267 -0.0588603057
-1.8435809612 1.7168937922 -0.0588603057
-1.8375767469 1.7233184576 -0.0588603057
-1.8279129267 1.7262932062 -0.0587416328
-1.8218760490 1.7326632738 -0.0587416328
-1.8158168793 1.7390121222 -0.0587416328
-1.8097356558 1.7453397512 -0.0587416328
-1.8072208166 1.7551261187 -0.0588603057
-1.8010829687 1.7614241838 -0.0588603057
-1.7984874249 1.7712050676 -0.0589789711
-1.7922939062 1.7774720192 -0.0589789711
-1.7860785723 1.7837173939 -0.0589789711
-1.7798414230 1.7899410725 -0.0589789711
-1.7735822201 1.7961432934 -0.0589789711
-1.7708041668 1.8058897257 -0.0590976439
-1.7644897699 1.8120599985 -0.0590976439
-1.7575188875 1.8188217878 -0.0590976439
-1.7546228170 1.8285495043 -0.0592163093
-1.7482293844 1.8346630335 -0.0592163093
-1.7452530861 1.8443826437 -0.0593349822
-1.7388038635 1.8504638672 -0.0593349822
-1.7323341370 1.8565219641 -0.0593349822
-1.7258431911 1.8625575304 -0.0593349822
-1.7227183580 1.8722462654 -0.0594536513
-1.7161726952 1.8782482147 -0.0594536513
-1.7129671574 1.8879271746 -0.0595723242
-1.7063666582 1.8938950300 -0.0595723242
-1.7030810118 1.9035624266 -0.0596909896
-1.7030712366 1.9169645309 -0.0599283315
-1.6864409447 1.9116595984 -0.0595723242
-1.6929430962 1.9325653315 -0.0600470044
-1.6500704288 1.8970032930 -0.0587416328
-1.6303582191 1.8876296282 -0.0582669526
-1.5911899805 1.8553903103 -0.0570802540
-1.5717293024 1.8457202911 -0.0566055737
-1.5168209076 1.7939778566 -0.0548255220
-1.4944642782 1.7801325321 -0.0542321727
-1.5010563135 1.8006863594 -0.0547068566
-1.4883810282 1.7982184887 -0.0544695109
-1.5075095892 1.8342771530 -0.0554188751
-1.5169136524 1.8588799238 -0.0560122207
-1.5356140137 1.8952142000 -0.0569615811
-1.5352617502 1.9083474874 -0.0571989194
-1.5442041159 1.9332110882 -0.0577922724
-1.5219018459 1.9190188646 -0.0571989194
-1.5213841200 1.9321697950 -0.0574362613
-1.5146303177 1.9374686480 -0.0574362613
-1.4918477535 1.9235326052 -0.0568429120
-1.4729138613 1.9128955603 -0.0563682355
-1.4571113586 1.9061186314 -0.0560122207
-1.4383492470 1.8952755928 -0.0555375442
-1.4257023335 1.8923052549 -0.0553002022
-1.4100972414 1.8852690458 -0.0549441949
-1.3975417614 1.8821579218 -0.0547068566
-1.3731489182 1.8628969193 -0.0539948307
-1.3548178673 1.8515522480 -0.0535201505
-1.3012914658 1.7916002274 -0.0516214333
-1.2511278391 1.7353495359 -0.0498413853
-1.2101112604 1.6909583807 -0.0484173447
-1.1926076412 1.6788821220 -0.0479426645
-1.1607822180 1.6462917328 -0.0468746349
-1.1320687532 1.6175930500 -0.0459252745
-1.1035704613 1.5887140036 -0.0449759178
-1.0752878189 1.5596561432 -0.0440265536
-1.0387411118 1.5180532932 -0.0427211858
-1.0109357834 1.4886116982 -0.0417718291
-1.0057330132 1.4921317101 -0.0417718291
-0.9921677113 1.4831777811 -0.0414158180
-0.9786772728 1.4741475582 -0.0410598107
-0.9625074267 1.4608700275 -0.0405851267
-0.9464424253 1.4474979639 -0.0401104465
-0.9332075715 1.4382222891 -0.0397544391
-0.9146280885 1.4204721451 -0.0391610898
-0.8988800645 1.4068193436 -0.0386864096
-0.8854320645 1.3976019621 -0.0383303985
-0.8698877692 1.3837685585 -0.0378557183
-0.8571012616 1.3740822077 -0.0374997072
-0.8443931341 1.3643236160 -0.0371436998
-0.8317633271 1.3544934988 -0.0367876887
-0.8218186498 1.3488572836 -0.0365503505
-0.7834236622 1.2961465120 -0.0350076407
-0.7763185501 1.2945894003 -0.0348889679
-0.7436240315 1.2500717640 -0.0335836001
-0.6832438707 1.1580245495 -0.0309728608
-0.6133925319 1.0483301878 -0.0278874412
-0.6097294688 1.0504649878 -0.0278874412
-0.5910542011 1.0266187191 -0.0271754228
-0.5899527669 1.0330122709 -0.0272940919
-0.5863431096 1.0350654125 -0.0272940919
-0.5827264786 1.0371057987 -0.0272940919
-0.5815429688 1.0434961319 -0.0274127610
-0.5803219080 1.0498906374 -0.0275314320
-0.5790632367 1.0562894344 -0.0276501011
-0.5777666569 1.0626922846 -0.0277687721
-0.5740537047 1.0647025108 -0.0277687721
-0.5726973414 1.0711042881 -0.0278874412
-0.5689550638 1.0730967522 -0.0278874412
-0.5675386786 1.0794970989 -0.0280061103
-0.5637668371 1.0814716816 -0.0280061103
-0.5645922422 1.0923070908 -0.0282434504
-0.5584895611 1.0898261070 -0.0281247813
-0.5592237711 1.1006748676 -0.0283621196
-0.5418465137 1.0758550167 -0.0276501011
-0.3603743613 0.7694944739 -0.0192245338
-0.3302031457 0.7118638754 -0.0176818259
-0.3403058350 0.7402334213 -0.0183938444
-0.3416226506 0.7506244183 -0.0186311845
-0.3348703682 0.7427081466 -0.0183938444
-0.3302267790 0.7393131852 -0.0182751752
-0.3256110251 0.7358949780 -0.0181565043
-0.3230403364 0.7370270491 -0.0181565043
-0.3184645176 0.7335696220 -0.0180378351
-0.3159017861 0.7346768975 -0.0180378351
-0.3113662302 0.7311807275 -0.0179191642
-0.3068589866 0.7276619077 -0.0178004950
-0.3023801148 0.7241205573 -0.0176818259
-0.2979297042 0.7205569148 -0.0175631549
-0.2935076952 0.7169710398 -0.0174444839
-0.2872259021 0.7087351084 -0.0172071438
-0.2847502530 0.7097334266 -0.0172071438
-0.2878400981 0.7246464491 -0.0175631549
-0.2871489823 0.7302943468 -0.0176818259
-0.2900694907 0.7452541590 -0.0180378351
-0.2856587172 0.7416018248 -0.0179191642
-0.2794856727 0.7332612872 -0.0176818259
-0.2751494348 0.7295595407 -0.0175631549
-0.2708424330 0.7258365154 -0.0174444839
-0.2665646076 0.7220925093 -0.0173258148
-0.2623164356 0.7183274031 -0.0172071438
-0.2598074377 0.7192386985 -0.0172071438
-0.2556020916 0.7154381275 -0.0170884747
-0.2531032264 0.7163259387 -0.0170884747
-0.2472804189 0.7077755928 -0.0168511346
-0.2431644797 0.7039138675 -0.0167324655
-0.2374511510 0.6953058839 -0.0164951254
-0.2334118038 0.6913985610 -0.0163764562
-0.2294026315 0.6874716282 -0.0162577853
-0.2238457799 0.6787821651 -0.0160204452
-0.2199137956 0.6748108268 -0.0159017742
-0.2160123140 0.6708203554 -0.0157831050
-0.2106133550 0.6620516777 -0.0155457649
-0.2067896873 0.6580182314 -0.0154270949
-0.2029965967 0.6539662480 -0.0153084248
-0.2007126212 0.6546708345 -0.0153084248
-0.1969647557 0.6505872607 -0.0151897557
-0.1946926266 0.6512708664 -0.0151897557
-0.1909900755 0.6471562386 -0.0150710857
-0.1873184741 0.6430237889 -0.0149524156
-0.1836782396 0.6388735771 -0.0148337455
-0.1812237799 0.6395741701 -0.0148337455
-0.1776308268 0.6353926659 -0.0147150764
-0.1741794050 0.6311635375 -0.0145964064
-0.1707580090 0.6269185543 -0.0144777363
-0.1672580689 0.6226869822 -0.0143590653
-0.1635738313 0.6184958816 -0.0142403953
-0.1601387262 0.6142299175 -0.0141217252
-0.1579937339 0.6147851348 -0.0141217252
-0.1558467895 0.6153329015 -0.0141217252
-0.1524733007 0.6110268831 -0.0140030552
-0.1491321027 0.6067048311 -0.0138843860
-0.1471193582 0.6071960330 -0.0138843860
-0.1439296156 0.6028221250 -0.0137657160
-0.1404571533 0.5985074639 -0.0136470459
-0.1372272521 0.5941271782 -0.0135283759
-0.1351527274 0.5946025252 -0.0135283759
-0.1319704950 0.5901959538 -0.0134097058
-0.1299094111 0.5906530619 -0.0134097058
-0.1278470308 0.5911028981 -0.0134097058
-0.1257827878 0.5915455818 -0.0134097058
-0.1226797774 0.5870913267 -0.0132910367
-0.1196090877 0.5826226473 -0.0131723667
-0.1165711284 0.5781398416 -0.0130536966
-0.1135661975 0.5736428499 -0.0129350265
-0.1115629971 0.5740358233 -0.0129350265
-0.1095587462 0.5744217038 -0.0129350265
-0.1075528488 0.5748006701 -0.0129350265
-0.1046278700 0.5702589154 -0.0128163556
-0.1026368216 0.5706206560 -0.0128163556
-0.1006442383 0.5709754825 -0.0128163556
-0.0977844521 0.5664002895 -0.0126976855
-0.0958066285 0.5667381883 -0.0126976855
-0.0929957703 0.5621403456 -0.0125790155
-0.0910331309 0.5624614954 -0.0125790155
-0.0882716402 0.5578413010 -0.0124603463
-0.0863240510 0.5581459999 -0.0124603463
-0.0843751132 0.5584439039 -0.0124603463
-0.0816794261 0.5537924170 -0.0123416763
-0.0797459930 0.5540741682 -0.0123416763
-0.0778113082 0.5543491244 -0.0123416763
-0.0758759677 0.5546173453 -0.0123416763
-0.0739394128 0.5548788309 -0.0123416763
-0.0720019788 0.5551335812 -0.0123416763
-0.0694218501 0.5504243374 -0.0122230062
-0.0681247264 0.5556226969 -0.0123416763
-0.0643626750 0.5409724712 -0.0119856661
-0.0648343042 0.5610483885 -0.0124603463
-0.0623025969 0.5563056469 -0.0123416763
-0.0568030737 0.5418184400 -0.0119856661
-0.0549116023 0.5420133471 -0.0119856661
-0.0492326878 0.5425586700 -0.0119856661
-0.0473383889 0.5427272320 -0.0119856661
-0.0416524336 0.5431932211 -0.0119856661
0.1213209555 0.5413571596 -0.0122230062
0.1461801231 0.6433567405 -0.0147150764
0.1484247893 0.6428425908 -0.0147150764
0.1585628241 0.6764083505 -0.0155457649
0.1586330980 0.6661193371 -0.0153084248
0.1632810682 0.6752849221 -0.0155457649
0.1666974574 0.6795975566 -0.0156644341
0.1713382453 0.6887487769 -0.0159017742
0.1751942635 0.6929351687 -0.0160204452
0.1788413376 0.6971644163 -0.0161391161
0.1837669164 0.7062172294 -0.0163764562
0.1861078292 0.7056039572 -0.0163764562
0.1884467006 0.7049828768 -0.0163764562
0.1909061819 0.7043208480 -0.0163764562
0.1933637112 0.7036501765 -0.0163764562
0.1958188564 0.7029708624 -0.0163764562
0.1982712895 0.7022830844 -0.0163764562
0.2007216513 0.7015866637 -0.0163764562
0.2031691968 0.7008818388 -0.0163764562
0.2056146413 0.7001683116 -0.0163764562
0.2066445798 0.6946515441 -0.0162577853
0.2090679109 0.6939260960 -0.0162577853
0.2114890367 0.6931920052 -0.0162577853
0.2153703272 0.6972292662 -0.0163764562
0.2178029567 0.6964731812 -0.0163764562
0.2202329040 0.6957086325 -0.0163764562
0.2226598263 0.6949357390 -0.0163764562
0.2235547006 0.6893954277 -0.0162577853
0.2259595543 0.6886109710 -0.0162577853
0.2267991304 0.6830700040 -0.0161391161
0.2276027799 0.6775316596 -0.0160204452
0.2283702046 0.6719961166 -0.0159017742
0.2291021347 0.6664634347 -0.0157831050
0.2314269245 0.6656597257 -0.0157831050
0.2337492406 0.6648477912 -0.0157831050
0.2360686809 0.6640277505 -0.0157831050
0.2383849472 0.6631997824 -0.0157831050
0.2406986356 0.6623635292 -0.0157831050
0.2430090308 0.6615194082 -0.0157831050
0.2453168333 0.6606670618 -0.0157831050
0.2476216108 0.6598066688 -0.0157831050
0.2499230653 0.6589383483 -0.0157831050
0.2522218227 0.6580619216 -0.0157831050
0.2545171380 0.6571775675 -0.0157831050
0.2550004721 0.6516253948 -0.0156644341
0.2572736144 0.6507312655 -0.0156644341
0.2595433295 0.6498293281 -0.0156644341
0.2618102133 0.6489193439 -0.0156644341
0.2640735805 0.6480015516 -0.0156644341
0.2663340569 0.6470757723 -0.0156644341
0.2685912549 0.6461421251 -0.0156644341
0.2708449066 0.6452006698 -0.0156644341
0.2730955482 0.6442512870 -0.0156644341
0.2753425539 0.6432941556 -0.0156644341
0.2775865197 0.6423290372 -0.0156644341
0.2798270881 0.6413561106 -0.0156644341
0.2820639610 0.6403754950 -0.0156644341
0.2842977047 0.6393869519 -0.0156644341
0.2865276337 0.6383907795 -0.0156644341
0.2887544334 0.6373866796 -0.0156644341
0.2889111638 0.6318233609 -0.0155457649
0.2911146879 0.6308111548 -0.0155457649
0.2933149934 0.6297910213 -0.0155457649
0.2955113649 0.6287634373 -0.0155457649
0.2977045178 0.6277280450 -0.0155457649
0.2998939753 0.6266849637 -0.0155457649
0.2999181151 0.6211272478 -0.0154270949
0.3042616844 0.6245760918 -0.0155457649
0.3042469919 0.6190183759 -0.0154270949
0.3064060509 0.6179525256 -0.0154270949
0.3085613549 0.6168791056 -0.0154270949
0.3107126057 0.6157983541 -0.0154270949
0.3128603995 0.6147099733 -0.0154270949
0.3148971498 0.6136690974 -0.0154270949
0.3148577511 0.6080658436 -0.0153084248
0.3169784844 0.6069630384 -0.0153084248
0.3214124441 0.6102818847 -0.0154270949
0.3235408962 0.6091561913 -0.0154270949
0.3256650865 0.6080232263 -0.0154270949
0.3277856410 0.6068826318 -0.0154270949
0.3299021721 0.6057347059 -0.0154270949
0.3320143819 0.6045795083 -0.0154270949
0.3317132592 0.5990373492 -0.0153084248
0.3338020742 0.5978759527 -0.0153084248
0.3358871341 0.5967070460 -0.0153084248
0.3355127573 0.5911768675 -0.0151897557
0.3375741243 0.5900022388 -0.0151897557
0.3371460140 0.5844835043 -0.0150710857
0.3366831839 0.5789751410 -0.0149524156
0.3361863792 0.5734770298 -0.0148337455
0.3355560601 0.5680481195 -0.0147150764
0.3348934650 0.5626297593 -0.0145964064
0.3317361772 0.5528702140 -0.0143590653
0.3285152316 0.5431395173 -0.0141217252
0.3226410151 0.5291625857 -0.0137657160
0.3192774057 0.5195001364 -0.0135283759
0.3158505857 0.5098675489 -0.0132910367
0.3123601973 0.5002654791 -0.0130536966
0.3141046464 0.4991720617 -0.0130536966
0.3158452809 0.4980725348 -0.0130536966
0.3202601671 0.5011875033 -0.0131723667
0.3273939788 0.5084885955 -0.0134097058
0.3318745494 0.5115444660 -0.0135283759
0.3363806903 0.5145750046 -0.0136470459
0.3409119844 0.5175802112 -0.0137657160
0.3399648368 0.5122141242 -0.0136470459
0.3389846385 0.5068607926 -0.0135283759
0.3379710019 0.5015208125 -0.0134097058
0.3369245231 0.4961939156 -0.0132910367
0.3442738354 0.5032832026 -0.0135283759
0.3545005023 0.5144516826 -0.0138843860
0.3619710505 0.5214400887 -0.0141217252
0.3751999140 0.5365918875 -0.0145964064
0.3742037416 0.5311842561 -0.0144777363
0.3731743395 0.5257901549 -0.0143590653
0.3721116781 0.5204099417 -0.0142403953
0.3681065142 0.5109790564 -0.0140030552
0.3640398383 0.5015828013 -0.0137657160
0.3628504872 0.4962649643 -0.0136470459
0.3704850376 0.5030626059 -0.0138843860
0.3781711459 0.5098130703 -0.0141217252
0.3859091103 0.5165157318 -0.0143590653
0.3907038867 0.5191681981 -0.0144777363
0.3955220580 0.5217931867 -0.0145964064
0.4003632963 0.5243908763 -0.0147150764
0.4052271843 0.5269612074 -0.0148337455
0.4131639898 0.5334640145 -0.0150710857
0.4180871248 0.5359683633 -0.0151897557
0.4261104167 0.5423834920 -0.0154270949
0.4280011952 0.5408927202 -0.0154270949
0.4236767888 0.5315608382 -0.0151897557
0.4161742628 0.5183590651 -0.0148337455
0.4085845649 0.5052165985 -0.0144777363
0.4009085596 0.4921332598 -0.0141217252
0.4026240706 0.4907307625 -0.0141217252
0.4075072110 0.4931850433 -0.0142403953
0.4092263579 0.4917594790 -0.0142403953
0.4141398966 0.4941684604 -0.0143590653
0.4157763720 0.4927923977 -0.0143590653
0.3883828819 0.4570396543 -0.0132910367
0.3926908076 0.4128485024 -0.0125790155
0.4216963053 0.4404437542 -0.0135283759
0.4474405944 0.4642318785 -0.0143590653
0.4490584433 0.4626671076 -0.0143590653
0.4437033832 0.4539274275 -0.0141217252
0.4487813711 0.4559483230 -0.0142403953
0.4503700435 0.4543791413 -0.0142403953
0.4554744065 0.4563522637 -0.0143590653
0.4605980515 0.4582953155 -0.0144777363
0.4621948600 0.4566848576 -0.0144777363
0.4673441648 0.4585796297 -0.0145964064
0.4689418972 0.4569456577 -0.0145964064
0.4741165042 0.4587919712 -0.0147150764
0.4829041362 0.4640812278 -0.0149524156
0.4881275594 0.4658538997 -0.0150710857
0.4969880879 0.4710438251 -0.0153084248
0.5022597909 0.4727420509 -0.0154270949
0.5111922622 0.4778319299 -0.0156644341
0.5128571987 0.4760445058 -0.0156644341
0.5181820393 0.4776490927 -0.0157831050
0.5161680579 0.4724525809 -0.0156644341
0.5141238570 0.4672762454 -0.0155457649
0.5120500922 0.4621197283 -0.0154270949
0.5062331557 0.4536373913 -0.0151897557
0.5040882826 0.4485346973 -0.0150710857
0.4981774390 0.4401322603 -0.0148337455
0.4958864748 0.4351702332 -0.0147150764
0.4935681224 0.4302282631 -0.0145964064
0.4950667620 0.4285029173 -0.0145964064
0.4965595901 0.4267720878 -0.0145964064
0.4980461597 0.4250363410 -0.0145964064
0.5033311844 0.4265374839 -0.0147150764
0.5048171282 0.4247778058 -0.0147150764
0.5101235509 0.4262289405 -0.0148337455
0.5116083622 0.4244455695 -0.0148337455
0.5130866766 0.4226573110 -0.0148337455
0.5145590305 0.4208636284 -0.0148337455
0.5198965073 0.4222267568 -0.0149524156
0.5213670135 0.4204095602 -0.0149524156
0.5228314400 0.4185869992 -0.0149524156
0.5242892504 0.4167595804 -0.0149524156
0.5257409215 0.4149268270 -0.0149524156
0.5232601762 0.4099950790 -0.0148337455
0.5246880054 0.4081662595 -0.0148337455
0.5300571918 0.4093985558 -0.0149524156
0.5314828753 0.4075460136 -0.0149524156
0.5368711352 0.4087269604 -0.0150710857
0.5422741175 0.4098752439 -0.0151897557
0.5476913452 0.4109910429 -0.0153084248
0.5531231761 0.4120737016 -0.0154270949
0.5585689545 0.4131236970 -0.0155457649
0.5559864044 0.4082022309 -0.0154270949
0.5574080348 0.4062588513 -0.0154270949
0.5547807217 0.4013699293 -0.0153084248
0.5521263480 0.3965040147 -0.0151897557
0.5535069108 0.3945745230 -0.0151897557
0.5508084893 0.3897414505 -0.0150710857
0.5521656275 0.3878162801 -0.0150710857
0.5494232774 0.3830167353 -0.0149524156
0.5548595786 0.3839520812 -0.0150710857
0.5603088737 0.3848543763 -0.0151897557
0.5657039881 0.3858218193 -0.0153084248
0.5711116195 0.3867577016 -0.0154270949
0.5765992999 0.3875611722 -0.0155457649
0.5820995569 0.3883310556 -0.0156644341
0.5834514499 0.3862969279 -0.0156644341
0.5889665484 0.3870138228 -0.0157831050
0.5903137922 0.3849557936 -0.0157831050
0.5958433151 0.3856195509 -0.0159017742
0.6013846993 0.3862494230 -0.0160204452
0.6069374084 0.3868454993 -0.0161391161
0.6125018001 0.3874072134 -0.0162577853
0.6180772185 0.3879350722 -0.0163764562
0.6236639619 0.3884283602 -0.0164951254
0.6207705736 0.3836104274 -0.0163764562
0.6221057177 0.3814413548 -0.0163764562
0.6191696525 0.3766585886 -0.0162577853
0.6204805970 0.3744951785 -0.0162577853
0.6175021529 0.3697479367 -0.0161391161
0.6187249422 0.3676981628 -0.0161391161
0.6200683713 0.3654280305 -0.0161391161
0.6213402748 0.3632612526 -0.0161391161
0.6269218922 0.3636092544 -0.0162577853
0.6411662698 0.3689300120 -0.0166137945
0.6509903073 0.3718944490 -0.0168511346
0.6739985943 0.3819950521 -0.0174444839
0.6354969740 0.3484054506 -0.0162577853
0.6279386878 0.3413870633 -0.0160204452
0.5939769745 0.3201245666 -0.0150710857
0.5994928479 0.3204173446 -0.0151897557
0.5873770714 0.3112640977 -0.0148337455
0.6238070726 0.3279116154 -0.0157831050
0.6426541209 0.3350200653 -0.0162577853
0.6748617887 0.3489207327 -0.0170884747
0.6894035935 0.3534359038 -0.0174444839
0.6906331778 0.3510271609 -0.0174444839
0.6873956919 0.3463544846 -0.0173258148
0.6841341853 0.3417083621 -0.0172071438
0.6853227019 0.3393184245 -0.0172071438
0.6865030527 0.3369239867 -0.0172071438
0.6876749992 0.3345254660 -0.0172071438
0.6843411326 0.3299413919 -0.0170884747
0.6854887605 0.3275504410 -0.0170884747
0.6821154356 0.3230054677 -0.0169698037
0.6832388639 0.3206223249 -0.0169698037
0.6843539476 0.3182353079 -0.0169698037
0.6809258461 0.3137417138 -0.0168511346
0.6820169091 0.3113628030 -0.0168511346
0.6785503030 0.3069091439 -0.0167324655
0.6796175241 0.3045385480 -0.0167324655
0.6761128902 0.3001247644 -0.0166137945
0.6680149436 0.2937159836 -0.0163764562
0.6598807573 0.2873671055 -0.0161391161
0.6517102718 0.2810789645 -0.0159017742
0.6434562802 0.2749634981 -0.0156644341
0.6443645358 0.2728281915 -0.0156644341
0.6453130245 0.2705771327 -0.0156644341
0.6508648992 0.2702521086 -0.0157831050
0.6518043280 0.2679784000 -0.0157831050
0.6527358294 0.2657014132 -0.0157831050
0.6582905650 0.2653020918 -0.0159017742
0.6592127085 0.2630024850 -0.0159017742
0.6601266265 0.2607000172 -0.0159017742
0.6656835079 0.2602260113 -0.0160204452
0.6759021878 0.2615321279 -0.0162577853
0.6814743280 0.2609708607 -0.0163764562
0.6963902712 0.2639398873 -0.0167324655
0.6973072886 0.2615076602 -0.0167324655
0.6748057604 0.2503191531 -0.0161391161
0.6616110206 0.2427594066 -0.0157831050
0.6483718753 0.2352952212 -0.0154270949
0.6444892287 0.2313289940 -0.0153084248
0.6405866742 0.2273931056 -0.0151897557
0.6366646886 0.2234869450 -0.0150710857
0.6374409795 0.2212630957 -0.0150710857
0.6334859729 0.2174012214 -0.0149524156
0.6342410445 0.2151884884 -0.0149524156
0.6302535534 0.2113708556 -0.0148337455
0.6262472868 0.2075833529 -0.0147150764
0.6222223043 0.2038264573 -0.0145964064
0.6181787252 0.2001004815 -0.0144777363
0.6141167879 0.1964049190 -0.0143590653
0.6147647500 0.1943673342 -0.0143590653
0.6106392145 0.1908228397 -0.0142403953
0.6113015413 0.1886903346 -0.0142403953
0.6119564772 0.1865552217 -0.0142403953
0.6078217030 0.1829633862 -0.0141217252
0.6084566712 0.1808404475 -0.0141217252
0.6042920351 0.1772939563 -0.0140030552
0.6049071550 0.1751836985 -0.0140030552
0.6007129550 0.1716831177 -0.0138843860
0.5965016484 0.1682142913 -0.0137657160
0.5922735929 0.1647766680 -0.0136470459
0.5928452015 0.1627081186 -0.0136470459
0.5885885358 0.1593172252 -0.0135283759
0.5891411304 0.1572615653 -0.0135283759
0.5896863937 0.1552043110 -0.0135283759
0.5902246237 0.1531448513 -0.0135283759
0.5907556415 0.1510835290 -0.0135283759
0.5912793875 0.1490206718 -0.0135283759
0.5869483948 0.1457362622 -0.0134097058
0.5874534845 0.1436867267 -0.0134097058
0.5879515409 0.1416351348 -0.0134097058
0.5835822821 0.1384132206 -0.0132910367
0.5840618610 0.1363754869 -0.0132910367
0.5845343471 0.1343357712 -0.0132910367
0.5801276565 0.1311770976 -0.0131723667
0.5756837130 0.1281511039 -0.0130536966
0.5712261796 0.1251560450 -0.0129350265
0.5667764544 0.1220929325 -0.0128163556
0.5623123646 0.1190627366 -0.0126976855
0.5529436469 0.1150307655 -0.0124603463
0.5582358837 0.1141168848 -0.0125790155
0.5586307645 0.1121677607 -0.0125790155
0.5590189695 0.1102169678 -0.0125790155
0.5643046498 0.1092308983 -0.0126976855
0.5646824837 0.1072603241 -0.0126976855
0.5699645281 0.1062199399 -0.0128163556
0.5752460957 0.1051442921 -0.0129350265
0.5756096244 0.1031355411 -0.0129350265
0.5759661198 0.1011258438 -0.0129350265
0.5713919997 0.0982517600 -0.0128163556
0.5717315078 0.0962565094 -0.0128163556
0.5671345592 0.0934319422 -0.0126976855
0.5674572587 0.0914515853 -0.0126976855
0.5677729845 0.0894704163 -0.0126976855
0.5680818558 0.0874878466 -0.0126976855
0.5683838129 0.0855042189 -0.0126976855
0.5686787963 0.0835198537 -0.0126976855
0.5689526200 0.0816335604 -0.0126976855
0.5642722249 0.0790368840 -0.0125790155
0.5596208572 0.0761791617 -0.0124603463
0.5598704219 0.0743229464 -0.0124603463
0.5601137877 0.0724659190 -0.0124603463
0.5603633523 0.0705102161 -0.0124603463
0.5556464195 0.0679308847 -0.0123416763
0.5558801889 0.0659907833 -0.0123416763
0.5561071634 0.0640501752 -0.0123416763
0.5513615012 0.0615374334 -0.0122230062
0.5515729189 0.0596123524 -0.0122230062
0.5517776608 0.0576867945 -0.0122230062
0.5569472313 0.0562792867 -0.0123416763
0.5571402907 0.0543350130 -0.0123416763
0.5623016357 0.0528740808 -0.0124603463
0.5624827743 0.0509108640 -0.0124603463
0.5427437425 0.0471490398 -0.0119856661
0.5379251242 0.0448219292 -0.0118669970
0.4845498800 -0.2595848143 -0.0153967980
0.5012463927 -0.2707443237 -0.0160005931
0.5266382098 -0.2868235707 -0.0169062875
0.5649964809 -0.3104254007 -0.0182648282
0.6337522268 -0.3513335884 -0.0206800122
0.6325219870 -0.3535436392 -0.0206800122
0.6399801970 -0.3606774807 -0.0209819116
0.6387172937 -0.3629092276 -0.0209819116
0.6374466419 -0.3651365638 -0.0209819116
0.6361681819 -0.3673594296 -0.0209819116
0.6348819733 -0.3695778251 -0.0209819116
0.6378924251 -0.3743312657 -0.0211328603
0.6365818977 -0.3765556514 -0.0211328603
0.6395501494 -0.3813449740 -0.0212838091
0.6424927115 -0.3861595690 -0.0214347579
0.6454093456 -0.3909993172 -0.0215857066
0.6440405846 -0.3932498395 -0.0215857066
0.6469142437 -0.3981246948 -0.0217366554
0.6455205679 -0.4003804326 -0.0217366554
0.6483508945 -0.4052899778 -0.0218876041
0.6469322443 -0.4075506926 -0.0218876041
0.6455056667 -0.4098064303 -0.0218876041
0.6398674846 -0.4093542695 -0.0217366554
0.6845718622 -0.4414784908 -0.0233970936
0.6537332535 -0.4247401357 -0.0223404523
0.7190500498 -0.4709679484 -0.0247556362
0.8007137179 -0.5287017226 -0.0277746152
0.8445786238 -0.5620279908 -0.0294350535
0.8924707770 -0.5983011127 -0.0312464423
0.9897803068 -0.6685380340 -0.0348692164
3.8222284317 -2.6268022060 -0.1388730705
3.7883884907 -2.6230490208 -0.1379673779
3.7751119137 -2.6333961487 -0.1378164440
3.7699842453 -2.6494326591 -0.1379673779
3.7647907734 -2.6654658318 -0.1381183267
3.7595314980 -2.6814947128 -0.1382692754
3.7501482964 -2.6946017742 -0.1382692754
3.7407197952 -2.7076754570 -0.1382692754
3.7312452793 -2.7207167149 -0.1382692754
3.7217254639 -2.7337245941 -0.1382692754
3.7121603489 -2.7466993332 -0.1382692754
3.7025499344 -2.7596404552 -0.1382692754
3.6888990402 -2.7695455551 -0.1381183267
3.6792089939 -2.7824053764 -0.1381183267
3.6694741249 -2.7952313423 -0.1381183267
3.6596944332 -2.8080232143 -0.1381183267
3.6498703957 -2.8207807541 -0.1381183267
3.6400017738 -2.8335039616 -0.1381183267
3.6300888062 -2.8461925983 -0.1381183267
3.6162104607 -2.8557476997 -0.1379673779
3.6062200069 -2.8683533669 -0.1379673779
3.5961856842 -2.8809239864 -0.1379673779
3.5861074924 -2.8934593201 -0.1379673779
3.5726151466 -2.9021830559 -0.1378164440
3.5668387413 -2.9171795845 -0.1379673779
3.5566339493 -2.9296123981 -0.1379673779
3.5425410271 -2.9388175011 -0.1378164440
1.2243970633 -1.0287678242 -0.0470960848
1.1226221323 -0.9633169174 -0.0434733108
1.0890324116 -0.9410520792 -0.0422657207
1.0706765652 -0.9317062497 -0.0416619256
1.0974545479 -0.9618259072 -0.0428695157
1.0791181326 -0.9524045587 -0.0422657207
1.0235462189 -0.9096206427 -0.0401524305
0.9943257570 -0.8898245096 -0.0390957892
0.9578400254 -0.8631344438 -0.0377372503
0.9141600728 -0.8294738531 -0.0360768102
0.9038896561 -0.8259069920 -0.0357749127
0.8899825215 -0.8188893795 -0.0353220664
0.8761355281 -0.8117849231 -0.0348692164
0.8586999774 -0.8011789322 -0.0342654213
0.8413493037 -0.7904614210 -0.0336616263
0.8278459311 -0.7829284072 -0.0332087800
0.8107874393 -0.7718629241 -0.0326049812
0.7936789393 -0.7608317733 -0.0320011862
0.7802476883 -0.7531673908 -0.0315483399
0.7633017302 -0.7419294119 -0.0309445448
0.7500097156 -0.7340842485 -0.0304916985
0.7332282662 -0.7226412296 -0.0298878998
0.7165360451 -0.7110902667 -0.0292841047
0.6964045763 -0.6958928704 -0.0285293609
0.6763882041 -0.6805637479 -0.0277746152
0.6564875245 -0.6651036143 -0.0270198695
0.6401949525 -0.6530886889 -0.0264160745
0.6274735928 -0.6445560455 -0.0259632263
0.6148197651 -0.6359426975 -0.0255103800
0.6056880355 -0.6308609843 -0.0252084825
0.5965992808 -0.6257233620 -0.0249065850
0.5875538588 -0.6205300689 -0.0246046875
0.5819681287 -0.6189292669 -0.0244537387
0.5764008164 -0.6172971129 -0.0243027899
0.5708519816 -0.6156336069 -0.0241518393
0.5653218627 -0.6139389873 -0.0240008906
0.5598105192 -0.6122133136 -0.0238499399
0.5509662628 -0.6067496538 -0.0235480424
0.5388281941 -0.5975130796 -0.0230951961
0.5300873518 -0.5919296741 -0.0227932986
0.5082401633 -0.5712361932 -0.0218876041
0.5096442103 -0.5766707063 -0.0220385529
0.5109161735 -0.5822100043 -0.0221895017
0.5088807344 -0.5839899182 -0.0221895017
0.5068391562 -0.5857626200 -0.0221895017
0.5112882257 -0.5951243639 -0.0224914011
0.5221482515 -0.6121428609 -0.0230951961
3.3874263763 -4.0143094063 -0.1574397981
3.3830187321 -4.0376048088 -0.1578926593
3.3689043522 -4.0493888855 -0.1578926593
3.3547487259 -4.0611243248 -0.1578926593
3.3468885422 -4.0805401802 -0.1581945419
3.3357789516 -4.0960741043 -0.1583454907
3.3246018887 -4.1115808487 -0.1584964544
3.3102297783 -4.1231603622 -0.1584964544
3.2989308834 -4.1385993958 -0.1586474031
3.2875642776 -4.1540093422 -0.1587983370
3.2761306763 -4.1693906784 -0.1589492857
3.2646296024 -4.1847429276 -0.1591002494
3.2530615330 -4.2000651360 -0.1592511982
3.2444708347 -4.2193202972 -0.1595530957
3.2327542305 -4.2345933914 -0.1597040445
3.2239878178 -4.2538199425 -0.1600059271
3.2181303501 -4.2770318985 -0.1604587883
3.2001917362 -4.2842335701 -0.1603078395
3.1676988602 -4.3331017494 -0.1609116346
3.1599411964 -4.3511214256 -0.1612135172
3.1498134136 -4.3707852364 -0.1615154296
3.1345374584 -4.3817534447 -0.1615154296
2.7419710159 -3.9187345505 -0.1432505995
2.7311248779 -3.9323878288 -0.1434015483
2.7145466805 -3.9377813339 -0.1432505995
2.7064261436 -3.9554843903 -0.1435524970
2.6926023960 -3.9649074078 -0.1435524970
2.6815373898 -3.9784271717 -0.1437034458
2.6676337719 -3.9877634048 -0.1437034458
2.6564605236 -4.0012154579 -0.1438543946
2.6452257633 -4.0146384239 -0.1440053433
2.6311960220 -4.0238475800 -0.1440053433
2.6198530197 -4.0372009277 -0.1441562921
2.6057446003 -4.0463213921 -0.1441562921
2.5916047096 -4.0553922653 -0.1441562921
2.5801076889 -4.0686354637 -0.1443072408
2.5658895969 -4.0776166916 -0.1443072408
2.5542860031 -4.0907888412 -0.1444581896
2.5426216125 -4.1039295197 -0.1446091384
2.5282807350 -4.1127796173 -0.1446091384
2.5172300339 -4.1254086494 -0.1447600871
2.5042572021 -4.1332964897 -0.1447600871
2.4916634560 -4.1467318535 -0.1449110359
2.4797310829 -4.1596980095 -0.1450619847
2.4677386284 -4.1726307869 -0.1452129334
2.4556860924 -4.1855311394 -0.1453638822
2.4460854530 -4.2027177811 -0.1456657797
2.4338977337 -4.2155599594 -0.1458167285
2.4216501713 -4.2283678055 -0.1459676772
2.4093427658 -4.2411413193 -0.1461186260
2.3994274139 -4.2582359314 -0.1464205235
2.3821120262 -4.2622218132 -0.1462695748
2.0274693966 -3.6873977184 -0.1258914620
2.0169763565 -3.6988406181 -0.1260424107
2.0111794472 -3.7190501690 -0.1264952570
2.0029053688 -3.7348582745 -0.1267971545
1.9968901873 -3.7550675869 -0.1272500008
1.9884290695 -3.7708587646 -0.1275518984
1.9775682688 -3.7822065353 -0.1277028471
1.9666522741 -3.7935245037 -0.1278538108
2.5820939541 -5.1122598648 -0.1717799604
2.5798866749 -5.1525282860 -0.1728366017
2.5618853569 -5.1615023613 -0.1728366017
2.4953434467 -5.0717434883 -0.1695157140
2.3558671474 -4.8284215927 -0.1610625833
2.3550691605 -4.8677039146 -0.1621192247
2.3315846920 -4.8623738289 -0.1616663784
2.3188850880 -4.8795118332 -0.1619682759
2.3039658070 -4.8920989037 -0.1621192247
2.2932116985 -4.9136996269 -0.1625720710
2.4315724373 -5.3561677933 -0.1764593720
2.4190065861 -5.3782987595 -0.1769122183
2.4042840004 -5.3958411217 -0.1772141159
2.3914849758 -5.4179186821 -0.1776669621
2.3785605431 -5.4399728775 -0.1781198233
2.3674967289 -5.4665894508 -0.1787236184
2.3543062210 -5.4886007309 -0.1791764647
2.3409917355 -5.5105867386 -0.1796293110
2.3101220131 -5.4910812378 -0.1787236184
2.2813370228 -5.4760422707 -0.1779688746
2.2526860237 -5.4608688354 -0.1772141159
2.2600467205 -5.5334806442 -0.1793274134
2.2556953430 -5.5784063339 -0.1805350035
2.2584815025 -5.6419296265 -0.1823463887
2.2442924976 -5.6637191772 -0.1827992350
2.2299797535 -5.6854777336 -0.1832520813
2.2065050602 -5.6839089394 -0.1829501837
2.0141446590 -5.2973823547 -0.1699685603
1.9727814198 -5.2435650826 -0.1680062413
1.9579503536 -5.2597875595 -0.1683081239
2.1160452366 -5.8087091446 -0.1855163276
2.1143784523 -5.8677849770 -0.1871767491
2.0972356796 -5.8845462799 -0.1874786615
2.0849826336 -5.9154005051 -0.1882333905
2.0676081181 -5.9320821762 -0.1885353029
1.6985995770 -5.0389323235 -0.1594021320
1.6834595203 -5.0492792130 -0.1595530957
1.6689494848 -5.0646190643 -0.1598549932
1.6528060436 -5.0751662254 -0.1600059271
1.6350806952 -5.0809049606 -0.1600059271
1.6188480854 -5.0913443565 -0.1601568907
1.6025619507 -5.1017332077 -0.1603078395
1.5877031088 -5.1168432236 -0.1606097221
1.5742206573 -5.1366910934 -0.1610625833
1.5606193542 -5.1565060616 -0.1615154296
1.5468989611 -5.1762890816 -0.1619682759
1.5344713926 -5.2008328438 -0.1625720710
1.5204961300 -5.2205538750 -0.1630249172
1.5050216913 -5.2354369164 -0.1633268148
1.4908250570 -5.2550835609 -0.1637796611
1.4751639366 -5.2698822021 -0.1640815586
1.4607458115 -5.2894525528 -0.1645344049
1.4462095499 -5.3089861870 -0.1649872512
1.4315541983 -5.3284835815 -0.1654400975
1.4167808294 -5.3479423523 -0.1658929437
1.4031505585 -5.3721990585 -0.1664967388
1.3893673420 -5.3964252472 -0.1671005338
1.3754328489 -5.4206204414 -0.1677043289
1.3601347208 -5.4399352074 -0.1681571752
1.3459130526 -5.4640617371 -0.1687609702
1.3315395117 -5.4881553650 -0.1693647653
1.3158535957 -5.5073537827 -0.1698176265
1.3011932373 -5.5313744545 -0.1704214215
1.2863805294 -5.5553598404 -0.1710252166
1.2703080177 -5.5744357109 -0.1714780629
1.2563017607 -5.6032209396 -0.1722328067
1.2410343885 -5.6270952225 -0.1728366017
1.2287200689 -5.6604847908 -0.1737422943
1.4053124189 -6.8133592606 -0.2089134157
1.3874685764 -6.8476133347 -0.2098191082
1.3684277534 -6.8769240379 -0.2105738521
1.3415437937 -6.8669433594 -0.2101210058
1.3241442442 -6.9059443474 -0.2111776471
1.3027986288 -6.9252595901 -0.2116304934
1.2876735926 -6.9789147377 -0.2131399810
1.2686349154 -7.0128755569 -0.2140456736
1.2153956890 -6.8548622131 -0.2090643495
1.1507723331 -6.7646369934 -0.2060453743
1.1853513718 -7.1186456680 -0.2167627513
1.1580873728 -7.1079416275 -0.2163099200
1.1159936190 -7.0033564568 -0.2129890323
1.0961481333 -7.0368399620 -0.2138947397
1.0760834217 -7.0702686310 -0.2148004174
1.0550650358 -7.0987000465 -0.2155551612
1.0324277878 -7.1171779633 -0.2160080075
1.0103743076 -7.1405329704 -0.2166118026
0.9847607613 -7.1390657425 -0.2164608687
0.9345864654 -6.9542317390 -0.2107248008
0.9458992481 -7.2300119400 -0.2190269828
0.9080586433 -7.1341123581 -0.2160080075
0.8329231739 -6.7305150032 -0.2036301941
0.8219231963 -6.8375868797 -0.2068001330
0.8090307713 -6.9347338676 -0.2096681446
0.7881828547 -6.9673128128 -0.2105738521
0.7660299540 -6.9898943901 -0.2111776471
0.7442557216 -7.0173754692 -0.2119323909
0.7222980261 -7.0447897911 -0.2126871496
0.7001588941 -7.0721354485 -0.2134418786
0.6783114672 -7.1043877602 -0.2143475711
0.6562463641 -7.1365728378 -0.2152532637
0.6339658499 -7.1686906815 -0.2161589563
0.6114680767 -7.2007398605 -0.2170646638
0.5887551904 -7.2327179909 -0.2179703563
0.5658264756 -7.2646255493 -0.2188760489
0.5426811576 -7.2964606285 -0.2197817415
0.5196735859 -7.3332076073 -0.2208383828
0.4960803688 -7.3648958206 -0.2217440754
0.4713213146 -7.3815455437 -0.2221969217
0.4467519522 -7.4031004906 -0.2228007168
0.4098130167 -8.2259922028 -0.2475563586
0.3808666766 -8.2223806381 -0.2474053949
0.2898220420 -6.7606554031 -0.2031773478
0.2662237585 -6.7316160202 -0.2022716552
0.2424619794 -6.6925058365 -0.2010640651
0.2659792602 -8.1368913651 -0.2446883172
0.2384436876 -8.1677446365 -0.2455940247
0.2091667950 -8.1385498047 -0.2446883172
0.1804274321 -8.1242418289 -0.2442354858
0.1516969651 -8.1048345566 -0.2436316758
0.1231052801 -8.0853261948 -0.2430278957
0.0947091952 -8.0707139969 -0.2425750345
0.0662951767 -8.0410108566 -0.2416693568
0.0380907655 -8.0112066269 -0.2407636493
-0.0377954617 -6.6618056297 -0.2000074238
-0.0610498041 -6.6616330147 -0.2000074238
-0.0843025148 -6.6613793373 -0.2000074238
-0.1069811508 -6.6260647774 -0.1989507675
-0.1298111379 -6.6106610298 -0.1984979361
-0.1525348872 -6.5951786041 -0.1980450898
-0.1750187129 -6.5746221542 -0.1974412948
-0.1976635009 -6.5639801025 -0.1971393824
-0.2421773672 -6.5274810791 -0.1960827410
-0.1004936770 -2.5017917156 -0.0744178519
-0.1072327942 -2.4564902782 -0.0730593130
-0.1158067584 -2.4561009407 -0.0730593130
-0.1236106381 -2.4407083988 -0.0726064667
-0.1318556666 -2.4352717400 -0.0724555179
-0.1400642544 -2.4298076630 -0.0723045692
-0.1485452056 -2.4293038845 -0.0723045692
-0.1566980183 -2.4237833023 -0.0721536204
-0.1648144424 -2.4182357788 -0.0720026717
-0.1728937179 -2.4126610756 -0.0718517229
-0.1809360981 -2.4070594311 -0.0717007741
-0.1889417917 -2.4014310837 -0.0715498254
-0.1969100982 -2.3957765102 -0.0713988766
-0.2048415393 -2.3900952339 -0.0712479278
-0.2127354145 -2.3843882084 -0.0710969791
-0.2205919325 -2.3786549568 -0.0709460303
-0.2284113616 -2.3728961945 -0.0707950816
-0.2361929417 -2.3671116829 -0.0706441328
-0.2439372689 -2.3613018990 -0.0704931840
-0.2516435981 -2.3554668427 -0.0703422353
-0.2593121529 -2.3496072292 -0.0701912865
-0.2669431865 -2.3437223434 -0.0700403303
-0.2741281986 -2.3378610611 -0.0698893890
-0.2820911407 -2.3318793774 -0.0697384328
-0.2904199660 -2.3258204460 -0.0695874915
-0.2966817915 -2.3199915886 -0.0694365352
-0.3037192523 -2.3140401840 -0.0692855865
-0.3119292557 -2.3079047203 -0.0691346377
-0.3192932308 -2.3018519878 -0.0689836890
-0.3273261487 -2.3007233143 -0.0689836890
-0.3353550434 -2.2995667458 -0.0689836890
-0.3433801830 -2.2983820438 -0.0689836890
-0.3514007926 -2.2971694469 -0.0689836890
-0.3594174683 -2.2959289551 -0.0689836890
-0.3670288622 -2.2947244644 -0.0689836890
-0.3746365309 -2.2934947014 -0.0689836890
-0.3826399148 -2.2921729088 -0.0689836890
-0.3906389177 -2.2908234596 -0.0689836890
-0.3986328840 -2.2894458771 -0.0689836890
-0.4066222906 -2.2880403996 -0.0689836890
-0.4146064520 -2.2866070271 -0.0689836890
-0.4216731191 -2.2802324295 -0.0688327402
-0.4296302199 -2.2787463665 -0.0688327402
-0.4366350174 -2.2723255157 -0.0686817914
-0.4445644021 -2.2707874775 -0.0686817914
-0.4515071511 -2.2643215656 -0.0685308427
-0.4594082236 -2.2627317905 -0.0685308427
-0.4662888050 -2.2562205791 -0.0683798939
-0.4741615355 -2.2545793056 -0.0683798939
-0.4809794724 -2.2480242252 -0.0682289451
-0.4877571166 -2.2414488792 -0.0680779964
-0.4944947660 -2.2348537445 -0.0679270476
-0.5011925697 -2.2282388210 -0.0677760988
-0.5089673996 -2.2264759541 -0.0677760988
-0.5156018734 -2.2198185921 -0.0676251501
-0.5221958160 -2.2131419182 -0.0674742013
-0.5299178362 -2.2113056183 -0.0674742013
-0.5364483595 -2.2045872211 -0.0673232526
-0.5441403985 -2.2027013302 -0.0673232526
