-0.0969237611 -2.9993114471 -0.3332118392
-0.0974005014 -2.5021185875 -0.2773038149
-0.1048022360 -2.4719812870 -0.2739493251
-0.1124735996 -2.4517486095 -0.2717129886
-0.1202612668 -2.4364552498 -0.2700357437
-0.1282177567 -2.4260983467 -0.2689175904
-0.1369767189 -2.4305961132 -0.2694766521
-0.1454601139 -2.4301030636 -0.2694766521
-0.1539420635 -2.4295804501 -0.2694766521
-0.1620786935 -2.4240717888 -0.2689175904
-0.1705394834 -2.4234912395 -0.2689175904
-0.1786201447 -2.4179267883 -0.2683584988
-0.1866640449 -2.4123356342 -0.2677994370
-0.1946714073 -2.4067177773 -0.2672403455
-0.2026415318 -2.4010736942 -0.2666812837
-0.2105749249 -2.3954031467 -0.2661221921
-0.2180067450 -2.3847596645 -0.2650040090
-0.2258482724 -2.3790390491 -0.2644449472
-0.2336528152 -2.3732924461 -0.2638858557
-0.2414196879 -2.3675208092 -0.2633267939
-0.2491494268 -2.3617234230 -0.2627677023
-0.2568413615 -2.3559014797 -0.2622086406
-0.2644956410 -2.3500542641 -0.2616495490
-0.2721125782 -2.3441827297 -0.2610904872
-0.2802935243 -2.3432185650 -0.2610904872
-0.2878520489 -2.3372960091 -0.2605313957
-0.2947358787 -2.3264214993 -0.2594132125
-0.3022010028 -2.3204531670 -0.2588541508
-0.3088202477 -2.3145689964 -0.2582950592
-0.3162115812 -2.3085558414 -0.2577359974
-0.3235643506 -2.3025193214 -0.2571769059
-0.3308788538 -2.2964596748 -0.2566178143
-0.3381553292 -2.2903773785 -0.2560587525
-0.3461480439 -2.2891829014 -0.2560587525
-0.3533647060 -2.2830522060 -0.2554996610
-0.3605425358 -2.2768995762 -0.2549405992
-0.3684881032 -2.2756271362 -0.2549405992
-0.3756059408 -2.2694268227 -0.2543815076
-0.3826847374 -2.2632050514 -0.2538224161
-0.3897249699 -2.2569613457 -0.2532633245
-0.3967260122 -2.2506961823 -0.2527042627
-0.4045798779 -2.2492976189 -0.2527042627
-0.4115202129 -2.2429869175 -0.2521451712
-0.4184211791 -2.2366552353 -0.2515861094
-0.4252831936 -2.2303025723 -0.2510270178
-0.4330657125 -2.2288043499 -0.2510270178
-0.4398659766 -2.2224075794 -0.2504679561
-0.4466271102 -2.2159903049 -0.2499088645
-0.4543595016 -2.2144179344 -0.2499088645
-0.4610587656 -2.2079572678 -0.2493497878
-0.4677180946 -2.2014768124 -0.2487906963
-0.4743379056 -2.1949770451 -0.2482316345
-0.4819970727 -2.1933078766 -0.2482316345
-0.4885543585 -2.1867656708 -0.2476725429
-0.4961847961 -2.1850469112 -0.2476725429
-0.5026794076 -2.1784632206 -0.2471134663
-0.5102804899 -2.1766953468 -0.2471134663
-0.5167123079 -2.1700701714 -0.2465543747
-0.5242840052 -2.1682531834 -0.2465543747
-0.5306526423 -2.1615877151 -0.2459953129
-0.5369808078 -2.1549041271 -0.2454362214
-0.5444994569 -2.1530165672 -0.2454362214
-0.5507643819 -2.1462934017 -0.2448771596
-0.5582528710 -2.1443576813 -0.2448771596
-0.5644538403 -2.1375951767 -0.2443180531
-0.5719118714 -2.1356117725 -0.2443180531
-0.5780485868 -2.1288111210 -0.2437589914
-0.5841449499 -2.1219930649 -0.2431998998
-0.5915484428 -2.1199412346 -0.2431998998
-0.5975804329 -2.1130857468 -0.2426408082
-0.6049526930 -2.1109869480 -0.2426408082
-0.6109197736 -2.1040945053 -0.2420817465
-0.6182609200 -2.1019492149 -0.2420817465
-0.6255941987 -2.0997781754 -0.2420817465
-0.6329201460 -2.0975816250 -0.2420817465
-0.6387737989 -2.0906114578 -0.2415226549
-0.6460673809 -2.0883691311 -0.2415226549
-0.6518560052 -2.0813636780 -0.2409635782
-0.6591172218 -2.0790755749 -0.2409635782
-0.6648402214 -2.0720348358 -0.2404044867
-0.6705219150 -2.0649800301 -0.2398454249
-0.6761624217 -2.0579104424 -0.2392863333
-0.6817620397 -2.0508270264 -0.2387272567
-0.6889165044 -2.0484347343 -0.2387272567
-0.6944501400 -2.0413177013 -0.2381681651
-0.7015712857 -2.0388813019 -0.2381681651
-0.7086839676 -2.0364198685 -0.2381681651
-0.7141264081 -2.0292513371 -0.2376091033
-0.7212053537 -2.0267462730 -0.2376091033
-0.7265812755 -2.0195455551 -0.2370500118
-0.7336263061 -2.0169968605 -0.2370500118
-0.7399592400 -2.0146822929 -0.2370500118
-0.7452455759 -2.0074338913 -0.2364909500
-0.7529480457 -2.0045573711 -0.2364909500
-0.7599408627 -2.0019168854 -0.2364909500
-0.7669240832 -1.9992520809 -0.2364909500
-0.7720898986 -1.9919347763 -0.2359318584
-0.7790384889 -1.9892275333 -0.2359318584
-0.7852839828 -1.9867702723 -0.2359318584
-0.7903594375 -1.9794076681 -0.2353727818
-0.7972641587 -1.9766366482 -0.2353727818
-0.8041589856 -1.9738417864 -0.2353727818
-0.8110439777 -1.9710227251 -0.2353727818
-0.8179193139 -1.9681795835 -0.2353727818
-0.8228493929 -1.9607360363 -0.2348136902
-0.8296887875 -1.9578517675 -0.2348136902
-0.8365178108 -1.9549437761 -0.2348136902
-0.8413538337 -1.9474561214 -0.2342546284
-0.8481467962 -1.9445073605 -0.2342546284
-0.8529144526 -1.9369930029 -0.2336955369
-0.8596708179 -1.9340038300 -0.2336955369
-0.8664163947 -1.9309912920 -0.2336955369
-0.8710894585 -1.9234347343 -0.2331364602
-0.8777983189 -1.9203823805 -0.2331364602
-0.8824026585 -1.9128004313 -0.2325773686
-0.8890743256 -1.9097084999 -0.2325773686
-0.8957349658 -1.9065935612 -0.2325773686
-0.9002441168 -1.8989714384 -0.2320183069
-0.9068673849 -1.8958173990 -0.2320183069
-0.9134793878 -1.8926403522 -0.2320183069
-0.9200805426 -1.8894400597 -0.2320183069
-0.9244671464 -1.8817633390 -0.2314592153
-0.9310299754 -1.8785248995 -0.2314592153
-0.9375817776 -1.8752634525 -0.2314592153
-0.9441218376 -1.8719793558 -0.2314592153
-0.9506506324 -1.8686722517 -0.2314592153
-0.9571676254 -1.8653424978 -0.2314592153
-0.9636729956 -1.8619900942 -0.2314592153
-0.9701668024 -1.8586148024 -0.2314592153
-0.9766485691 -1.8552169800 -0.2314592153
-0.9831187129 -1.8517965078 -0.2314592153
-0.9872195125 -1.8439797163 -0.2309001535
-0.9936501384 -1.8405225277 -0.2309001535
-1.0000687838 -1.8370426893 -0.2309001535
-1.0064750910 -1.8335406780 -0.2309001535
-1.0128693581 -1.8300161362 -0.2309001535
-1.0192511082 -1.8264695406 -0.2309001535
-1.0231721401 -1.8185768127 -0.2303410470
-1.0295139551 -1.8149940968 -0.2303410470
-1.0358431339 -1.8113894463 -0.2303410470
-1.0396666527 -1.8034648895 -0.2297819853
-1.0459555387 -1.7998248339 -0.2297819853
-1.0497082472 -1.7918825150 -0.2292228937
-1.0559568405 -1.7882074118 -0.2292228937
-1.0621923208 -1.7845106125 -0.2292228937
-1.0709830523 -1.7850456238 -0.2297819853
-1.0797902346 -1.7855408192 -0.2303410470
-1.0860161781 -1.7817608118 -0.2303410470
-1.0817798376 -1.7610530853 -0.2281047404
-1.0852931738 -1.7530488968 -0.2275456488
-1.4054269791 -2.2150104046 -0.2907217145
-1.4185218811 -2.2184514999 -0.2918398678
-1.4370582104 -2.2301697731 -0.2940762043
-1.4611233473 -2.2501080036 -0.2974306643
-2.7203097343 -4.0861434937 -0.5478986502
-3.2114207745 -4.7498712540 -0.6407059431
-3.2027685642 -4.7017002106 -0.6356742382
-3.2163448334 -4.6863980293 -0.6351151466
-3.2524940968 -4.7037296295 -0.6390286684
-3.2831141949 -4.7127180099 -0.6418240666
-3.2995450497 -4.7012290955 -0.6418240666
-3.7739524841 -5.2968182564 -0.7273633480
-3.8011217117 -5.2957143784 -0.7290406227
-3.8195838928 -5.2824139595 -0.7290406227
-3.8409287930 -5.2730617523 -0.7295996547
-3.8740260601 -5.2796392441 -0.7323951125
-2.6660346985 -3.5837132931 -0.4981404841
-2.6874816418 -3.5863020420 -0.4998177290
-2.7089798450 -3.5887849331 -0.5014950037
-2.7335395813 -3.5951125622 -0.5037313104
-2.7551503181 -3.5973713398 -0.5054085255
-2.7768104076 -3.5995225906 -0.5070857406
-2.7985184193 -3.6015665531 -0.5087630153
-2.8202748299 -3.6035032272 -0.5104402900
-2.8420794010 -3.6053307056 -0.5121175051
-2.8639299870 -3.6070501804 -0.5137947202
-2.8796112537 -3.6009080410 -0.5143538117
-2.9015274048 -3.6024317741 -0.5160310268
-2.8984096050 -3.5730075836 -0.5132356286
-2.9077167511 -3.5590243340 -0.5126765966
-2.9137983322 -3.5411870480 -0.5115584135
-2.9229662418 -3.5271728039 -0.5109993219
-2.9288835526 -3.5093271732 -0.5098811984
-2.9347116947 -3.4914832115 -0.5087630153
-2.9404523373 -3.4736406803 -0.5076448321
-2.9461030960 -3.4558014870 -0.5065266490
-2.9484238625 -3.4341995716 -0.5048494339
-2.9571387768 -3.4201321602 -0.5042903423
-2.9625241756 -3.4023034573 -0.5031722188
-2.9711022377 -3.3882091045 -0.5026131272
-2.9829111099 -3.3778176308 -0.5026131272
-2.9847638607 -3.3562591076 -0.5009359121
-2.9964609146 -3.3458199501 -0.5009359121
-2.9781301022 -3.3021709919 -0.4959041774
-2.9695677757 -3.2697117329 -0.4925496578
-2.9675307274 -3.2446780205 -0.4903133512
-2.9687261581 -3.2233486176 -0.4886361063
-2.9833431244 -3.2166051865 -0.4891952276
-2.9843642712 -3.1952917576 -0.4875179827
-2.9784560204 -3.1667799950 -0.4847225845
-3.1275494099 -3.2787754536 -0.5054085255
-3.1355285645 -3.2642595768 -0.5048494339
-3.1157727242 -3.2211925983 -0.4998177290
-3.1825411320 -3.2671730518 -0.5087630153
-4.0021696091 -4.0779442787 -0.6384696364
-4.2226519585 -4.2722482681 -0.6714553237
-4.2691154480 -4.2891469002 -0.6764870882
-4.6220493317 -4.6107945442 -0.7301587462
-4.6522483826 -4.6086063385 -0.7323951125
-4.2289829254 -4.1319923401 -0.6608328223
-4.2647962570 -4.1379446983 -0.6641873121
-4.3078651428 -4.1505846977 -0.6686599851
-4.2828006744 -4.0977745056 -0.6625100374
-2.7375891209 -2.5499436855 -0.4165147841
-2.7172522545 -2.5134255886 -0.4120421410
-2.7113513947 -2.4905033112 -0.4098058045
-2.7053236961 -2.4676532745 -0.4075694978
-2.6881062984 -2.4348862171 -0.4036559165
-2.6706933975 -2.4022696018 -0.3997423649
-2.6530866623 -2.3698041439 -0.3958288133
-2.6725099087 -2.3704018593 -0.3975060284
-2.6845016479 -2.3643367290 -0.3980651200
-2.6964833736 -2.3582167625 -0.3986241817
-2.7084553242 -2.3520419598 -0.3991832733
-2.7204174995 -2.3458116055 -0.3997423649
-2.7323687077 -2.3395268917 -0.4003014565
-2.7443089485 -2.3331875801 -0.4008605480
-2.7562379837 -2.3267929554 -0.4014196098
-2.7681562901 -2.3203437328 -0.4019787014
-2.7838871479 -2.3170113564 -0.4030968547
-2.7957930565 -2.3104388714 -0.4036559165
-2.8076868057 -2.3038115501 -0.4042150080
-2.8203701973 -2.2961447239 -0.4047740698
-2.8322370052 -2.2894034386 -0.4053331912
-2.8440909386 -2.2826070786 -0.4058922529
-2.8598225117 -2.2788462639 -0.4070104063
-2.8755631447 -2.2750024796 -0.4081285596
-2.9030475616 -2.2802667618 -0.4109239876
-3.7896983624 -2.9531912804 -0.5361579657
-3.8353843689 -2.9672660828 -0.5411896110
-2.2878382206 -1.7601835728 -0.3203529716
-2.2781507969 -1.7401535511 -0.3181166649
-2.2723159790 -1.7232077122 -0.3164394200
-2.2663908005 -1.7063239813 -0.3147621453
-2.2603757381 -1.6895027161 -0.3130849302
-2.2342903614 -1.6579810381 -0.3086122870
-2.0449781418 -1.4961068630 -0.2806582749
-2.0179731846 -1.4656742811 -0.2761856318
-2.0311508179 -1.4644145966 -0.2773038149
-2.0362503529 -1.4573158026 -0.2773038149
-2.1589810848 -1.5333803892 -0.2935171425
-2.3066682816 -1.6257303953 -0.3130849302
-2.3123290539 -1.6176688671 -0.3130849302
-2.3424830437 -1.6265417337 -0.3164394200
-2.2129535675 -1.5255786180 -0.2979897559
-2.1320283413 -1.4591051340 -0.2862490714
-2.1288759708 -1.4460887909 -0.2851309180
-2.1339106560 -1.4386489391 -0.2851309180
-2.1471905708 -1.4366993904 -0.2862490714
-2.1604828835 -1.4346746206 -0.2873672247
-2.1073117256 -1.3889739513 -0.2795401216
-5.8391242027 -3.8074891567 -0.7799169421
-5.8774204254 -3.8032593727 -0.7832713723
-5.8948435783 -3.7854018211 -0.7838304639
-5.9080209732 -3.7648022175 -0.7838304639
-5.9421358109 -3.7574157715 -0.7866258621
-5.9552149773 -3.7366511822 -0.7866258621
-5.3721518517 -3.3194439411 -0.7061183453
-6.0833659172 -3.6706016064 -0.7950120568
-6.0705504417 -3.6340529919 -0.7916576266
-6.0190868378 -3.5748350620 -0.7832713723
-5.4602327347 -3.1922063828 -0.7072364688
-5.4670419693 -3.1706385612 -0.7066773772
-5.4349861145 -3.1267981529 -0.7010866404
-5.4285964966 -3.0979728699 -0.6988503337
-5.4739871025 -3.0985541344 -0.7033229470
-5.4587616920 -3.0648548603 -0.6999684572
-5.4433679581 -3.0313017368 -0.6966139674
-5.4070906639 -2.9840142727 -0.6904640794
-5.3869490623 -2.9484517574 -0.6865504980
-5.3622560501 -2.9107000828 -0.6820778847
-5.3363628387 -2.8750188351 -0.6776052713
-5.3156738281 -2.8400137424 -0.6736916900
-5.2904124260 -2.8028659821 -0.6692190170
-5.2693581581 -2.7682363987 -0.6653054953
-5.2490811348 -2.7319555283 -0.6613919139
-5.2276620865 -2.6976966858 -0.6574783325
-5.2139883041 -2.6699578762 -0.6546829939
-5.1798677444 -2.6274843216 -0.6490921378
-5.1792159081 -2.6067402363 -0.6479740143
-5.2069826126 -2.5956835747 -0.6502103209
-5.2249240875 -2.5818858147 -0.6513284445
-5.2517623901 -2.5723555088 -0.6535648108
-5.3322534561 -2.5428321362 -0.6602737308
-5.3276143074 -2.5178480148 -0.6585965157
-5.3363714218 -2.4992346764 -0.6585965157
-5.3766255379 -2.4952030182 -0.6625100374
-5.3943347931 -2.4805634022 -0.6636282206
-5.4210543633 -2.4699416161 -0.6658645868
-5.4477653503 -2.4591636658 -0.6681008935
-5.4699296951 -2.4462034702 -0.6697781086
-5.5011587143 -2.4371364117 -0.6725735068
-5.5278391838 -2.4258887768 -0.6748098135
-5.6587767601 -2.4362525940 -0.6887868643
-5.6306686401 -2.4009268284 -0.6843141913
-5.6390151978 -2.3812580109 -0.6843141913
-4.5670986176 -1.8923364878 -0.5518121719
-4.5552802086 -1.8688608408 -0.5495758653
-4.5617761612 -1.8529475927 -0.5495758653
-4.5636043549 -1.8351644278 -0.5490167737
-4.5746011734 -1.8210558891 -0.5495758653
-4.5809297562 -1.8050767183 -0.5495758653
-4.5872025490 -1.7890756130 -0.5495758653
-4.5887823105 -1.7712674141 -0.5490167737
-4.5995812416 -1.7570067644 -0.5495758653
-4.5917367935 -1.7356865406 -0.5478986502
-4.6024231911 -1.7213830948 -0.5484576821
-4.6223893166 -1.7104643583 -0.5501349568
-5.2418022156 -1.8973747492 -0.6228153706
-5.3653831482 -1.9208163023 -0.6367923617
-5.4657630920 -1.9351495504 -0.6479740143
-5.5569248199 -1.9455302954 -0.6580374241
-5.6482253075 -1.9552963972 -0.6681008935
-5.7356419563 -1.9608445168 -0.6776052713
-5.8272066116 -1.9693661928 -0.6876686811
-5.9182076454 -1.9793399572 -0.6977320910
-6.0154356956 -1.9861180782 -0.7083546519
-6.0932054520 -1.9881641865 -0.7167408466
-6.1805224419 -1.9927324057 -0.7262452245
-6.2490034103 -1.9906971455 -0.7335132957
-6.3128032684 -1.9867219925 -0.7402222157
-6.3908882141 -1.9867383242 -0.7486084104
-6.4405436516 -1.9775073528 -0.7536401153
-6.4902119637 -1.9679538012 -0.7586718798
-6.5446529388 -1.9594968557 -0.7642626762
-6.5943465233 -1.9492807388 -0.7692943811
-6.6488194466 -1.9401293993 -0.7748851776
-6.7033081055 -1.9306213856 -0.7804760337
-6.7625913620 -1.9221109152 -0.7866258621
-6.8218960762 -1.9132080078 -0.7927757502
-6.8860101700 -1.9052374363 -0.7994847298
-6.9453573227 -1.8955379725 -0.8056346178
-7.0047192574 -1.8854471445 -0.8117845058
-7.0688977242 -1.8762357235 -0.8184934258
-7.1138668060 -1.8615807295 -0.8229660988
-7.1732549667 -1.8503483534 -0.8291159868
-7.1844859123 -1.8265186548 -0.8296750188
-7.3321571350 -1.8095506430 -0.8453293443
-7.3770608902 -1.7933042049 -0.8498019576
-7.4267721176 -1.7779214382 -0.8548336625
-7.4764657021 -1.7622132301 -0.8598654270
-7.5261392593 -1.7461795807 -0.8648970723
-7.5709466934 -1.7287181616 -0.8693697453
-7.6157245636 -1.7109631300 -0.8738424182
-7.6604695320 -1.6929183006 -0.8783150911
-7.7051806450 -1.6745818853 -0.8827877045
-7.7498564720 -1.6559538841 -0.8872603178
-7.7896323204 -1.6360164881 -0.8911738992
-7.8342308998 -1.6168203354 -0.8956465721
-7.8739190102 -1.5963507891 -0.8995600939
-7.9184327126 -1.5765906572 -0.9040327668
-7.9585690498 -1.5528107882 -0.9079462886
-7.9981050491 -1.5315383673 -0.9118598700
-8.0375890732 -1.5100086927 -0.9157733917
-8.0770206451 -1.4882199764 -0.9196869135
-8.1115074158 -1.4652966261 -0.9230415225
-8.1459312439 -1.4421503544 -0.9263959527
-8.1851882935 -1.4196273088 -0.9303094745
-8.2243871689 -1.3968477249 -0.9342230558
-8.2635269165 -1.3738095760 -0.9381365776
-8.3026056290 -1.3505173922 -0.9420502186
-8.3465290070 -1.3277462721 -0.9465228915
-8.3805732727 -1.3031646013 -0.9498773217
-8.4194602966 -1.2791043520 -0.9537908435
-8.4533662796 -1.2540602684 -0.9571453333
-8.4921178818 -1.2295061350 -0.9610589743
-8.5307998657 -1.2046965361 -0.9649724960
-8.5694112778 -1.1796319485 -0.9688860774
-8.6030263901 -1.1536550522 -0.9722405076
-8.6365652084 -1.1274557114 -0.9755949378
-8.6700248718 -1.1010385752 -0.9789495468
-8.7034053802 -1.0744013786 -0.9823039770
-8.7367038727 -1.0475445986 -0.9856584072
-8.7649869919 -1.0198973417 -0.9884538651
-8.7931814194 -0.9920629263 -0.9912492633
-8.8212881088 -0.9640464187 -0.9940446019
-8.8493080139 -0.9358458519 -0.9968400598
-8.8821792603 -0.9079634547 -1.0001945496
-8.9100198746 -0.8793781400 -1.0029900074
-8.9377679825 -0.8506070375 -1.0057853460
-8.9703712463 -0.8221055865 -1.0091397762
-8.9979352951 -0.7929539084 -1.0119352341
-9.0303554535 -0.7640354633 -1.0152896643
-9.0577306747 -0.7345018387 -1.0180851221
-9.0902099609 -0.7019939423 -1.0214396715
-9.1223373413 -0.6724299192 -1.0247941017
-9.1494112015 -0.6423076987 -1.0275894403
-9.1813459396 -0.6123322845 -1.0309439898
-9.2082214355 -0.5818313956 -1.0337393284
-9.2349958420 -0.5511503816 -1.0365346670
-9.2616691589 -0.5202870369 -1.0393301249
-9.2882385254 -0.4892466068 -1.0421255827
-9.3147039413 -0.4580270648 -1.0449210405
-9.3410634995 -0.4266286790 -1.0477163792
-9.3623523712 -0.3948454857 -1.0499526262
-9.3885002136 -0.3631054163 -1.0527480841
-9.4145383835 -0.3311900496 -1.0555434227
-9.4355020523 -0.2989430130 -1.0577797890
-9.4613218307 -0.2666906416 -1.0605751276
-9.4870319366 -0.2342616618 -1.0633707047
-9.5126295090 -0.2016538978 -1.0661660433
-9.5381145477 -0.1688727885 -1.0689613819
-9.5634870529 -0.1359162480 -1.0717568398
-9.5887451172 -0.1027846038 -1.0745521784
-9.6138887405 -0.0694782883 -1.0773476362
-9.6339464188 -0.0359795205 -1.0795838833
-9.6538887024 -0.0023441261 -1.0818202496
-9.6737117767 0.0314300433 -1.0840566158
-9.6983852386 0.0653790012 -1.0868519545
-9.7229404449 0.0995005965 -1.0896474123
-9.7473735809 0.1337969899 -1.0924427509
-9.7667198181 0.1681741476 -1.0946791172
-9.7909097672 0.2027937472 -1.0974744558
-9.8100118637 0.2374611795 -1.0997108221
-9.8288936615 0.2756960690 -1.1019470692
-9.8477354050 0.3106412590 -1.1041834354
-9.8715391159 0.3424542844 -1.1069788933
-9.8901433945 0.3776796758 -1.1092152596
-9.9035120010 0.4162869751 -1.1108924150
-9.9168891907 0.4515402317 -1.1125696898
-9.9351024628 0.4871380329 -1.1148059368
-9.9482269287 0.5226050615 -1.1164832115
-9.9661846161 0.5584530830 -1.1187195778
-9.9790534973 0.5941320062 -1.1203967333
-9.9967536926 0.6302230358 -1.1226330996
-10.0093650818 0.6661120653 -1.1243102551
-10.0168914795 0.7017468214 -1.1254284382
-10.0292463303 0.7378122211 -1.1271057129
-10.0365171432 0.7735851407 -1.1282238960
-10.0535650253 0.8102215528 -1.1304602623
-10.0803804398 0.8478249311 -1.1338146925
-10.0526132584 0.8808238506 -1.1310193539
-7.6744942665 0.6980983019 -0.8626607656
-7.6720108986 0.7248826623 -0.8626607656
-7.6991019249 0.7545880079 -0.8660152555
-10.1345310211 1.0665882826 -1.1422009468
-10.1501169205 1.1076613665 -1.1444371939
-10.1708736420 1.1458824873 -1.1472326517
-7.6745786667 0.8903713822 -0.8648970723
-7.8539476395 0.9391133189 -0.8855830431
-10.2031717300 1.2940551043 -1.1528234482
-6.3677020073 0.8506550193 -0.7184180617
-6.3253183365 0.8674411178 -0.7139454484
-6.3173322678 0.8888183236 -0.7133863568
-6.3043575287 0.9094365835 -0.7122682333
-6.2913146019 0.9299767017 -0.7111500502
-6.2732944489 0.9496871233 -0.7094728351
-6.2601227760 0.9700483680 -0.7083546519
-6.2468848228 0.9903291464 -0.7072364688
-6.2335824966 1.0105295181 -0.7061183453
-6.2153134346 1.0298339128 -0.7044410706
-6.2018847466 1.0498553514 -0.7033229470
-6.1834964752 1.0689448118 -0.7016457319
-6.1650505066 1.0879185200 -0.6999684572
-6.1514372826 1.1076617241 -0.6988503337
-6.1328744888 1.1264225245 -0.6971729994
-6.1191396713 1.1459848881 -0.6960548759
-6.1102228165 1.1664012671 -0.6954957843
-6.1061139107 1.1877224445 -0.6954957843
-6.1019310951 1.2090291977 -0.6954957843
-6.0976734161 1.2303228378 -0.6954957843
-6.0836095810 1.2495915890 -0.6943776608
-6.0694851875 1.2687770128 -0.6932594776
-6.0601601601 1.2889173031 -0.6927003860
-6.0459141731 1.3079528809 -0.6915822625
-6.0364594460 1.3279783726 -0.6910231709
-6.0269393921 1.3479521275 -0.6904640794
-6.0120320320 1.3688690662 -0.6893459558
-6.0023775101 1.3887218237 -0.6887868643
-5.9926576614 1.4085237980 -0.6882277727
-5.9780411720 1.4271168709 -0.6871095896
-5.9633674622 1.4456248283 -0.6859914064
-6.5691380501 1.7641115189 -0.7609081864
-6.6811609268 1.8444082737 -0.7754442692
-4.6607265472 1.3023797274 -0.5400714874
-4.6513729095 1.3172821999 -0.5395123959
-4.6510543823 1.3365104198 -0.5400714874
-4.6511297226 1.3541318178 -0.5406305790
-4.6463747025 1.3703588247 -0.5406305790
-4.6463217735 1.3879967928 -0.5411896110
-4.6414484978 1.4042067528 -0.5411896110
-4.6365184784 1.4204008579 -0.5411896110
-4.6505074501 1.4424866438 -0.5434259772
-6.8773627281 2.1624321938 -0.8067527413
-6.8745059967 2.1879355907 -0.8073118329
-6.9141087532 2.2271900177 -0.8129026890
-6.7315487862 2.1941978931 -0.7922167182
-6.5982699394 2.2017240524 -0.7782397270
-6.7270283699 2.2709398270 -0.7944530249
-6.7425642014 2.3024544716 -0.7972483635
-6.8471684456 2.3649978638 -0.8106663823
-6.8107347488 2.3790309429 -0.8073118329
-6.7742877007 2.3928384781 -0.8039574027
-6.7986383438 2.4281945229 -0.8078709245
-6.6686501503 2.4079391956 -0.7933348417
-6.6283764839 2.4458181858 -0.7905394435
-5.5586891174 2.0722074509 -0.6630691290
-5.5514216423 2.0915980339 -0.6630691290
-5.5394454002 2.1091907024 -0.6625100374
-5.5274133682 2.1267266273 -0.6619510055
-5.5153269768 2.1442027092 -0.6613919139
-5.5024304390 2.1635415554 -0.6608328223
-5.4902291298 2.1808965206 -0.6602737308
-5.4825830460 2.2000472546 -0.6602737308
-5.4702672958 2.2173006535 -0.6597146988
-5.4578971863 2.2344961166 -0.6591556072
-5.4500641823 2.2535338402 -0.6591556072
-5.4375820160 2.2706248760 -0.6585965157
-5.4250464439 2.2876565456 -0.6580374241
-5.4170279503 2.3065791130 -0.6580374241
-5.4089431763 2.3254752159 -0.6580374241
-5.4099049568 2.3483073711 -0.6591556072
-5.4107723236 2.3711740971 -0.6602737308
-5.4251723289 2.4001195431 -0.6630691290
-5.4983882904 2.4555897713 -0.6731325984
-5.5893926620 2.5197863579 -0.6854323149
-5.6980972290 2.5928945541 -0.6999684572
-5.8379516602 2.6813361645 -0.7184180617
-7.7571454048 3.5977370739 -0.9577044249
-7.8705043793 3.6838519573 -0.9733586907
-8.1181106567 3.8692874908 -1.0074626207
-8.1658525467 3.9306397438 -1.0152896643
-8.1936836243 3.9758200645 -1.0203214884
-8.4804668427 4.1922998428 -1.0600160360
-8.4968967438 4.2374167442 -1.0639296770
-8.6373577118 4.3452987671 -1.0834975243
-8.6221380234 4.3754215240 -1.0834975243
-8.6023912430 4.4032249451 -1.0829383135
-8.5781421661 4.4286618233 -1.0818202496
-4.2681565285 2.2381784916 -0.5378351808
-3.9689779282 2.1341567039 -0.5026131272
-3.9222202301 2.1266329288 -0.4975813925
-3.9060597420 2.1355338097 -0.4964632690
-3.8855366707 2.1419422626 -0.4947859943
-3.8650171757 2.1482336521 -0.4931087494
-3.8531634808 2.1592772007 -0.4925496578
-3.8369576931 2.1678144932 -0.4914315343
-3.4152033329 1.9445776939 -0.4377598166
-2.6376974583 1.5126000643 -0.3376844525
-2.7342774868 1.5937227011 -0.3516614735
-2.7757706642 1.6310296059 -0.3578113317
-2.7956833839 1.6559476852 -0.3611658514
-2.8197174072 1.6835781336 -0.3650793731
-2.8435924053 1.7113965750 -0.3689929545
-2.8545761108 1.7316490412 -0.3712292612
-2.8612182140 1.7493999004 -0.3729065359
-2.8713784218 1.7708345652 -0.3751428425
-0.9556226134 0.5987558365 -0.1224385798
-0.9535267949 0.6020878553 -0.1224385798
-0.9347058535 0.5946579576 -0.1202022433
-0.9451311827 0.6060269475 -0.1218794957
-0.9388504624 0.6066045165 -0.1213204041
-0.9367273450 0.6098780036 -0.1213204041
-0.9345927835 0.6131440401 -0.1213204041
-0.9365777373 0.6191638112 -0.1218794957
-0.9344106317 0.6224294901 -0.1218794957
-0.9322322607 0.6256873608 -0.1218794957
-0.9341441989 0.6317418218 -0.1224385798
-0.9319334030 0.6349986792 -0.1224385798
-2.0889925957 1.4427696466 -0.2812173367
-2.0595109463 1.4329708815 -0.2778628767
-2.0504345894 1.4372899532 -0.2773038149
-2.0494570732 1.4473137856 -0.2778628767
-2.0403506756 1.4515693188 -0.2773038149
-2.0352714062 1.4586824179 -0.2773038149
-2.0301668644 1.4657784700 -0.2773038149
-2.0250382423 1.4728560448 -0.2773038149
-2.0198845863 1.4799156189 -0.2773038149
-2.0147066116 1.4869571924 -0.2773038149
-2.0095038414 1.4939806461 -0.2773038149
-2.0042762756 1.5009864569 -0.2773038149
-1.9984985590 1.5086708069 -0.2773038149
-1.9932198524 1.5156381130 -0.2773038149
-1.9839794636 1.5195560455 -0.2767447233
-1.9786632061 1.5264720917 -0.2767447233
-1.9733228683 1.5333695412 -0.2767447233
-1.9679584503 1.5402482748 -0.2767447233
-1.9664647579 1.5501937866 -0.2773038149
-1.9610416889 1.5570484400 -0.2773038149
-1.9555946589 1.5638841391 -0.2773038149
-1.9501239061 1.5707007647 -0.2773038149
-1.9484807253 1.5806372166 -0.2778628767
-1.9429510832 1.5874295235 -0.2778628767
-1.9373981953 1.5942019224 -0.2778628767
-1.9356402159 1.6041340828 -0.2784219682
-1.9300290346 1.6108808517 -0.2784219682
-1.9281903505 1.6208136082 -0.2789810300
-1.9225205183 1.6275348663 -0.2789810300
-1.9168277979 1.6342356205 -0.2789810300
-1.9111117125 1.6409165859 -0.2789810300
-1.9053722620 1.6475775242 -0.2789810300
-1.8996095657 1.6542183161 -0.2789810300
-1.8938233852 1.6608395576 -0.2789810300
-1.8917312622 1.6707376242 -0.2795401216
-1.8858878613 1.6773307323 -0.2795401216
-1.8800214529 1.6839033365 -0.2795401216
-1.8778140545 1.6937916279 -0.2800991833
-1.8718898296 1.7003365755 -0.2800991833
-1.8696019650 1.7102221251 -0.2806582749
-1.8636208773 1.7167377472 -0.2806582749
-1.8576170206 1.7232323885 -0.2806582749
-1.8546085358 1.7337536812 -0.2812173367
-1.8485453129 1.7402168512 -0.2812173367
-1.8424592018 1.7466592789 -0.2812173367
-1.8363511562 1.7530798912 -0.2812173367
-1.8337948322 1.7629307508 -0.2817764282
-1.8276300430 1.7693210840 -0.2817764282
-1.8214428425 1.7756898403 -0.2817764282
-1.8152331114 1.7820373774 -0.2817764282
-1.8090016842 1.7883627415 -0.2817764282
-1.8062614202 1.7981796265 -0.2823355198
-1.7999737263 1.8044736385 -0.2823355198
-1.7692428827 1.7859810591 -0.2784219682
-1.5640617609 1.6114068031 -0.2482316345
-1.5309153795 1.5881670713 -0.2437589914
-1.5116562843 1.5791084766 -0.2415226549
-1.5061346292 1.5843758583 -0.2415226549
-1.4835888147 1.5715136528 -0.2387272567
-1.4814827442 1.5803164244 -0.2392863333
-1.4793335199 1.5891238451 -0.2398454249
-1.4771405458 1.5979351997 -0.2404044867
-1.4715534449 1.6030819416 -0.2404044867
-1.4659487009 1.6082087755 -0.2404044867
-1.4603261948 1.6133160591 -0.2404044867
-1.4546858072 1.6184036732 -0.2404044867
-1.4490277767 1.6234714985 -0.2404044867
-1.4400658607 1.6247930527 -0.2398454249
-1.4343856573 1.6298098564 -0.2398454249
-1.4476674795 1.6578115225 -0.2431998998
-1.4418718815 1.6628546715 -0.2431998998
-1.4780766964 1.7169353962 -0.2504679561
-1.5203589201 1.7788584232 -0.2588541508
-1.5141400099 1.7841548920 -0.2588541508
-1.5079029799 1.7894293070 -0.2588541508
-1.5111849308 1.8061370850 -0.2605313957
-1.5175343752 1.8267190456 -0.2627677023
-1.5269109011 1.8512078524 -0.2655631304
-1.5173002481 1.8526751995 -0.2650040090
-1.4951965809 1.8386479616 -0.2622086406
-1.4700974226 1.8206158876 -0.2588541508
-1.4327484369 1.7868944407 -0.2532633245
-1.4049081802 1.7646199465 -0.2493497878
-1.3803118467 1.7460793257 -0.2459953129
-1.3619780540 1.7352211475 -0.2437589914
-1.3376489878 1.7164021730 -0.2404044867
-1.2831660509 1.6580584049 -0.2314592153
-1.2411731482 1.6151486635 -0.2247502506
-1.1964927912 1.5680081844 -0.2174822092
-1.1521576643 1.5205758810 -0.2102141678
-1.1319681406 1.5046902895 -0.2074187547
-1.0822933912 1.4487831593 -0.1990325600
-1.0772297382 1.4525521994 -0.1990325600
-1.0662862062 1.4482827187 -0.1979144067
-1.0583052635 1.4479751587 -0.1973553300
-1.0416244268 1.4355368614 -0.1951190084
-1.0163704157 1.4108768702 -0.1912054271
-1.0080701113 1.4107170105 -0.1906463504
-0.9230247140 1.3004883528 -0.1749921143
-0.9184796214 1.3037023544 -0.1749921143
-1.0583969355 1.5150815248 -0.2035052031
-1.0531020164 1.5187667608 -0.2035052031
-1.0085345507 1.4650102854 -0.1956780851
-1.0452635288 1.5301929712 -0.2040642798
-1.0426913500 1.5379533768 -0.2046233565
-1.0345550776 1.5374530554 -0.2040642798
-1.0346755981 1.5493357182 -0.2051824331
-1.0429224968 1.5736879110 -0.2079778463
-1.4346889257 2.2021028996 -0.2912808061
-1.4377474785 2.2238113880 -0.2935171425
-1.3898657560 2.1660006046 -0.2851309180
-1.3583619595 2.1330654621 -0.2800991833
-1.3376843929 2.1167628765 -0.2773038149
-1.3118771315 2.0919108391 -0.2733902335
-1.2941054106 2.0795791149 -0.2711539268
-1.2556320429 2.0332787037 -0.2644449472
-1.2330125570 2.0121924877 -0.2610904872
-0.9965571165 1.6500663757 -0.2124504894
-0.8383201361 1.3973566294 -0.1789056659
-0.7424921393 1.2462488413 -0.1587787867
-0.6853999496 1.1588001251 -0.1470381021
-0.6314242482 1.0752651691 -0.1358564943
-0.6276670694 1.0774626732 -0.1358564943
-0.6140369177 1.0623939037 -0.1336201727
-0.6152271628 1.0731745958 -0.1347383261
-0.6090412736 1.0709850788 -0.1341792494
-0.6077201962 1.0774434805 -0.1347383261
-0.6039555669 1.0795581341 -0.1347383261
-0.6001833081 1.0816599131 -0.1347383261
-0.5964040160 1.0837483406 -0.1347383261
-0.5926174521 1.0858235359 -0.1347383261
-0.5907871127 1.0924723148 -0.1352974027
-0.5869701505 1.0945279598 -0.1352974027
-0.5854586959 1.1009677649 -0.1358564943
-0.5842958093 1.1072065830 -0.1364155859
-0.5800401568 1.1094419956 -0.1364155859
-0.5784305334 1.1158814430 -0.1369746625
-0.5745319128 1.1178936958 -0.1369746625
-0.5728618503 1.1243296862 -0.1375337392
-0.5689334869 1.1263226271 -0.1375337392
-0.5694076419 1.1372071505 -0.1386519074
-0.5676236749 1.1436482668 -0.1392109841
-0.3319410086 0.7002477646 -0.0827438757
-0.3627648354 0.7736037970 -0.0916891620
-0.3703801632 0.7974646091 -0.0944845602
-0.3716899455 0.8078066111 -0.0956027135
-0.3668359220 0.8045650125 -0.0950436369
-0.3640252948 0.8058405519 -0.0950436369
-0.3612101972 0.8071063161 -0.0950436369
-0.3564060926 0.8038071990 -0.0944845602
-0.3516296446 0.8004842997 -0.0939254761
-0.3468807638 0.7971379161 -0.0933663994
-0.3421595395 0.7937682271 -0.0928073153
-0.3374660909 0.7903752923 -0.0922482386
-0.3328003287 0.7869594097 -0.0916891620
-0.3281627595 0.7835205793 -0.0911300778
-0.3235532641 0.7800590396 -0.0905710012
-0.3189719617 0.7765748501 -0.0900119171
-0.3162592947 0.7776835561 -0.0900119171
-0.3117183447 0.7741611004 -0.0894528329
-0.3072060645 0.7706165314 -0.0888937563
-0.3045142591 0.7716841698 -0.0888937563
-0.3000430167 0.7681019306 -0.0883346722
-0.2953335941 0.7646010518 -0.0877755955
-0.2909212112 0.7609739304 -0.0872165114
-0.2848123312 0.7526658773 -0.0860983580
-0.2804739773 0.7489901185 -0.0855392739
-0.2761650085 0.7452932000 -0.0849801973
-0.2735618055 0.7462526560 -0.0849801973
-0.2692950666 0.7425199747 -0.0844211131
-0.2667015791 0.7434554100 -0.0844211131
-0.2624771893 0.7396873832 -0.0838620365
-0.2598936260 0.7405990958 -0.0838620365
-0.2557122707 0.7367959619 -0.0833029598
-0.2515606284 0.7329727411 -0.0827438757
-0.2490005791 0.7338463664 -0.0827438757
-0.2448920161 0.7299888134 -0.0821847916
-0.2423424125 0.7308391929 -0.0821847916
-0.2382775992 0.7269477844 -0.0816257074
-0.2342429012 0.7230368853 -0.0810666308
-0.2317176312 0.7238501310 -0.0810666308
-0.2277267426 0.7199061513 -0.0805075541
-0.2252124399 0.7206966877 -0.0805075541
-0.2212659568 0.7167198062 -0.0799484700
-0.2187628299 0.7174878120 -0.0799484700
-0.2148608267 0.7134786248 -0.0793893933
-0.2109893262 0.7094510198 -0.0788303092
-0.2085116357 0.7101832032 -0.0788303092
-0.2046852112 0.7061238885 -0.0782712325
-0.2022191733 0.7068340778 -0.0782712325
-0.1984378994 0.7027435303 -0.0777121559
-0.1959835142 0.7034319639 -0.0777121559
-0.1922476441 0.6993106604 -0.0771530718
-0.1898054630 0.6999774575 -0.0771530718
-0.1861152351 0.6958258152 -0.0765939951
-0.1836852431 0.6964712143 -0.0765939951
-0.1800407320 0.6922896504 -0.0760349110
-0.1764280200 0.6880911589 -0.0754758343
-0.1728464514 0.6838759184 -0.0749167502
-0.1692965031 0.6796441674 -0.0743576661
-0.1657785475 0.6753959656 -0.0737985894
-0.1622919887 0.6711316109 -0.0732395053
-0.1586045772 0.6669065952 -0.0726804286
-0.1562758684 0.6674560905 -0.0726804286
-0.1528695226 0.6631466746 -0.0721213520
-0.1505536437 0.6636763215 -0.0721213520
-0.1471947432 0.6593394876 -0.0715622678
-0.1438676268 0.6549874544 -0.0710031912
-0.1405730397 0.6506202221 -0.0704441071
-0.1383009702 0.6511069536 -0.0704441071
-0.1350536346 0.6467134356 -0.0698850304
-0.1327955574 0.6471809149 -0.0698850304
-0.1295959800 0.6427615285 -0.0693259537
-0.1273517311 0.6432099342 -0.0693259537
-0.1242001355 0.6387651563 -0.0687668696
-0.1210811436 0.6343062520 -0.0682077929
-0.1188664585 0.6347250342 -0.0682077929
-0.1157957315 0.6302413940 -0.0676487014
-0.1135952622 0.6306416988 -0.0676487014
-0.1113930941 0.6310344338 -0.0676487014
-0.1083866209 0.6265161037 -0.0670896247
-0.1061992049 0.6268905997 -0.0670896247
-0.1032414660 0.6223486662 -0.0665305480
-0.1003170609 0.6177937388 -0.0659714639
-0.0974254161 0.6132261157 -0.0654123873
-0.0952841416 0.6135624647 -0.0654123873
-0.0924419239 0.6089722514 -0.0648533031
-0.0903155208 0.6092912555 -0.0648533031
-0.0881883353 0.6096027493 -0.0648533031
-0.0860597640 0.6099069118 -0.0648533031
-0.0832988173 0.6052752137 -0.0642942265
-0.0805715546 0.6006317735 -0.0637351498
-0.0784743354 0.6009093523 -0.0637351498
-0.0757967830 0.5962448716 -0.0631760657
-0.0737149194 0.5965058804 -0.0631760657
-0.0710869282 0.5918208957 -0.0626169890
-0.0690208375 0.5920654535 -0.0626169890
-0.0669535920 0.5923027396 -0.0626169890
-0.0643923655 0.5875887871 -0.0620579086
-0.0623407848 0.5878099799 -0.0620579086
-0.0598294847 0.5830766559 -0.0614988282
-0.0577939861 0.5832818747 -0.0614988282
-0.0557574779 0.5834801197 -0.0614988282
-0.0533134751 0.5787191987 -0.0609397478
-0.0512929186 0.5789018273 -0.0609397478
-0.0492717400 0.5790773630 -0.0609397478
-0.0472502671 0.5792458057 -0.0609397478
-0.0448899642 0.5744500160 -0.0603806637
-0.0428846702 0.5746032000 -0.0603806637
-0.0408785455 0.5747494102 -0.0603806637
-0.0388719253 0.5748885870 -0.0603806637
-0.0368651375 0.5750207901 -0.0603806637
-0.0348575935 0.5751459599 -0.0603806637
-0.0326158740 0.5703009963 -0.0598215833
-0.0304081012 0.5654474497 -0.0592625029
-0.0284340158 0.5655501485 -0.0592625029
-0.0262778159 0.5606806874 -0.0587034225
-0.0243203957 0.5607689619 -0.0587034225
-0.0222155750 0.5558840036 -0.0581443422
-0.0202749241 0.5559581518 -0.0581443422
-0.0183340255 0.5560255647 -0.0581443422
-0.0163932014 0.5560861826 -0.0581443422
-0.0144518791 0.5561400056 -0.0581443422
-0.0124499751 0.5512188077 -0.0575852618
-0.0105256690 0.5512588620 -0.0575852618
-0.0085752206 0.5463237166 -0.0570261851
-0.0066683176 0.5463503003 -0.0570261851
-0.0047783870 0.5364329815 -0.0559080243
-0.0029060286 0.5364463925 -0.0559080243
0.0028678256 0.5463834405 -0.0570261851
0.0046797730 0.5414023995 -0.0564671047
0.0066821426 0.5463501215 -0.0570261851
0.0085893366 0.5463234782 -0.0570261851
0.1592355520 0.6973690987 -0.0760349110
0.1663149893 0.7161328793 -0.0782712325
0.1747061461 0.7396822572 -0.0810666308
0.1725060493 0.7197769880 -0.0788303092
0.1822899580 0.7480816245 -0.0821847916
0.1935028285 0.7811406255 -0.0860983580
0.1912451833 0.7612206936 -0.0838620365
0.1901137978 0.7461317182 -0.0821847916
0.1914380044 0.7406623960 -0.0816257074
0.1927259713 0.7351930141 -0.0810666308
0.1950345933 0.7345839739 -0.0810666308
0.1962699294 0.7291107178 -0.0805075541
0.1988139600 0.7284211516 -0.0805075541
0.2013551742 0.7277227640 -0.0805075541
0.2038943321 0.7270154357 -0.0805075541
0.2050360888 0.7215304375 -0.0799484700
0.2075535953 0.7208102942 -0.0799484700
0.2088903338 0.7152494192 -0.0793893933
0.2113859057 0.7145158648 -0.0793893933
0.2138785124 0.7137737274 -0.0793893933
0.2148896903 0.7082793713 -0.0788303092
0.2173605114 0.7075250149 -0.0788303092
0.2198290676 0.7067619562 -0.0788303092
0.2220482379 0.7060678601 -0.0788303092
0.2247577161 0.7052100897 -0.0788303092
0.2287799120 0.7091379762 -0.0793893933
0.2312536389 0.7083351612 -0.0793893933
0.2337249368 0.7075235248 -0.0793893933
0.2361933738 0.7067033052 -0.0793893933
0.2386585623 0.7058746219 -0.0793893933
0.2392326593 0.7004320025 -0.0788303092
0.2419203669 0.6995082498 -0.0788303092
0.2443607897 0.6986594796 -0.0788303092
0.2467982173 0.6978021860 -0.0788303092
0.2492322773 0.6969365478 -0.0788303092
0.2499382496 0.6914028525 -0.0782712325
0.2523499429 0.6905262470 -0.0782712325
0.2530010343 0.6849938631 -0.0777121559
0.2553907037 0.6841064692 -0.0777121559
0.2577769160 0.6832109094 -0.0777121559
0.2583538592 0.6776782870 -0.0771530718
0.2607176006 0.6767724156 -0.0771530718
0.2630785406 0.6758581400 -0.0771530718
0.2654362619 0.6749356985 -0.0771530718
0.2677904069 0.6740050912 -0.0771530718
0.2701416314 0.6730661988 -0.0771530718
0.2724892199 0.6721192002 -0.0771530718
0.2748338282 0.6711638570 -0.0771530718
0.2769409120 0.6702972054 -0.0771530718
0.2773297429 0.6647560596 -0.0765939951
0.2796482742 0.6637840271 -0.0765939951
0.2799825072 0.6582472324 -0.0760349110
0.2825079560 0.6571673155 -0.0760349110
0.2845710218 0.6562765837 -0.0760349110
0.2868602574 0.6552792192 -0.0760349110
0.2891456485 0.6542739868 -0.0760349110
0.2914278805 0.6532606483 -0.0760349110
0.2937065363 0.6522393227 -0.0760349110
0.2980732620 0.6557169557 -0.0765939951
0.3003604710 0.6546724439 -0.0765939951
0.3026436567 0.6536201239 -0.0765939951
0.3049235046 0.6525596380 -0.0765939951
0.3071996570 0.6514912248 -0.0765939951
0.3094716966 0.6504150033 -0.0765939951
0.3117403388 0.6493307352 -0.0765939951
0.3118033409 0.6437844038 -0.0760349110
0.3140487969 0.6426919699 -0.0760349110
0.3162904382 0.6415917873 -0.0760349110
0.3185278773 0.6404839158 -0.0760349110
0.3184983432 0.6349449158 -0.0754758343
0.3207125664 0.6338293552 -0.0754758343
0.3229232430 0.6327059865 -0.0754758343
0.3251299560 0.6315748096 -0.0754758343
0.3273323774 0.6304361820 -0.0754758343
0.3295311630 0.6292896271 -0.0754758343
0.3317255676 0.6281356215 -0.0754758343
0.3339163065 0.6269738078 -0.0754758343
0.3361029327 0.6258043051 -0.0754758343
0.3382851481 0.6246274114 -0.0754758343
0.3404635787 0.6234427094 -0.0754758343
0.3426375389 0.6222505569 -0.0754758343
0.3448076546 0.6210506558 -0.0754758343
0.3469735384 0.6198431849 -0.0754758343
0.3466580510 0.6143210530 -0.0749167502
0.3488004506 0.6131071448 -0.0749167502
0.3484314680 0.6075960994 -0.0743576661
0.3505503833 0.6063760519 -0.0743576661
0.3526650071 0.6051486135 -0.0743576661
0.3547750413 0.6039140224 -0.0743576661
0.3568810523 0.6026718616 -0.0743576661
0.3538198173 0.5929315686 -0.0732395053
0.3506952822 0.5832198858 -0.0721213520
0.3266202509 0.5397183299 -0.0665305480
0.3306870461 0.4535409808 -0.0587034225
0.3591052592 0.4881533384 -0.0637351498
0.3638026416 0.4908609390 -0.0642942265
0.3715330660 0.4974949062 -0.0654123873
0.3793141842 0.5040807724 -0.0665305480
0.3871454298 0.5106185079 -0.0676487014
0.3919764161 0.5131857395 -0.0682077929
0.3998941481 0.5196365714 -0.0693259537
0.4017056823 0.5182374716 -0.0693259537
0.4035123289 0.5168319941 -0.0693259537
0.4022085369 0.5115416646 -0.0687668696
0.4039918184 0.5101345181 -0.0687668696
0.4026376307 0.5048643351 -0.0682077929
0.4043976068 0.5034556985 -0.0682077929
0.4029934704 0.4982059002 -0.0676487014
0.4047299325 0.4967962801 -0.0676487014
0.3937185109 0.4801288545 -0.0654123873
0.4560746849 0.2824518681 -0.0559080243
0.4569597542 0.2810177207 -0.0559080243
0.4835504591 0.2946768403 -0.0592625029
0.5059642196 0.3056257963 -0.0620579086
0.5498918891 0.3289859891 -0.0676487014
0.5811030269 0.3445492089 -0.0715622678
0.5866059065 0.3450016975 -0.0721213520
0.5705567598 0.3330807090 -0.0698850304
0.5285053253 0.3065598011 -0.0642942265
0.4646281004 0.2681490481 -0.0559080243
0.6149213314 0.3140510917 -0.0732395053
0.6382699609 0.3229413331 -0.0760349110
0.6750648022 0.3382482529 -0.0805075541
0.6673081517 0.3315368891 -0.0793893933
0.6639873385 0.3270444572 -0.0788303092
0.6651249528 0.3247245550 -0.0788303092
0.6616534591 0.3205022812 -0.0782712325
0.6627680659 0.3181909323 -0.0782712325
0.6593716741 0.3137755394 -0.0777121559
0.6604630351 0.3114718497 -0.0777121559
0.6615461111 0.3091647029 -0.0777121559
0.6580964923 0.3048008978 -0.0771530718
0.6591563225 0.3025020659 -0.0771530718
0.6602083445 0.3001991808 -0.0771530718
0.6612522602 0.2978926599 -0.0771530718
0.6577348709 0.2935936749 -0.0765939951
0.6587557793 0.2912958264 -0.0765939951
0.6597684622 0.2889947593 -0.0765939951
0.6607732773 0.2866898477 -0.0765939951
0.6663504839 0.2863068581 -0.0771530718
0.6673457026 0.2839793265 -0.0771530718
0.6729267240 0.2835413814 -0.0777121559
0.6739122868 0.2811909020 -0.0777121559
0.6748898029 0.2788366675 -0.0777121559
0.6758590341 0.2764790058 -0.0777121559
0.6768199205 0.2741183639 -0.0777121559
0.6731466651 0.2699410617 -0.0771530718
0.6694523692 0.2657931149 -0.0765939951
0.6657375097 0.2616739273 -0.0760349110
0.6620020866 0.2575839460 -0.0754758343
0.6535951495 0.2517754138 -0.0743576661
0.6451560855 0.2460283935 -0.0732395053
0.6366009116 0.2405658662 -0.0721213520
0.6280999780 0.2349401116 -0.0710031912
0.6242418885 0.2310616970 -0.0704441071
0.6250447035 0.2288811505 -0.0704441071
0.6258397698 0.2266981453 -0.0704441071
0.6266273260 0.2245120406 -0.0704441071
0.6274072528 0.2223231941 -0.0704441071
0.6234763861 0.2185291201 -0.0698850304
0.6242354512 0.2163513154 -0.0698850304
0.6202726960 0.2126012146 -0.0693259537
0.6162915826 0.2088811100 -0.0687668696
0.6170169711 0.2067284435 -0.0687668696
0.6130045056 0.2030530572 -0.0682077929
0.6089740396 0.1994078606 -0.0676487014
0.6096662879 0.1972811222 -0.0676487014
0.6056053638 0.1936807334 -0.0670896247
0.6015267372 0.1901111156 -0.0665305480
0.5974305868 0.1865726858 -0.0659714639
0.5933171511 0.1830648482 -0.0654123873
0.5939524770 0.1809928566 -0.0654123873
0.5898098350 0.1775304824 -0.0648533031
0.5904259682 0.1754704565 -0.0648533031
0.5910348296 0.1734085977 -0.0648533031
0.5868514180 0.1700064838 -0.0642942265
0.5874412656 0.1679571420 -0.0642942265
0.5832296014 0.1646010429 -0.0637351498
0.5837438107 0.1627680361 -0.0637351498
0.5795055628 0.1594567001 -0.0631760657
0.5801135302 0.1572303772 -0.0631760657
0.5758466721 0.1539673060 -0.0626169890
0.5715116262 0.1509350389 -0.0620579086
0.5720349550 0.1489393413 -0.0620579086
0.5677270293 0.1457529962 -0.0614988282
0.5682824850 0.1435719877 -0.0614988282
0.5639472008 0.1404344589 -0.0609397478
0.5643856525 0.1386618465 -0.0609397478
0.5648661852 0.1366911083 -0.0609397478
0.5604954362 0.1336142272 -0.0603806637
0.5609583855 0.1316570789 -0.0603806637
0.5565626025 0.1286277324 -0.0598215833
0.5570082068 0.1266840547 -0.0598215833
0.5525876880 0.1237027124 -0.0592625029
0.5530161262 0.1217729524 -0.0592625029
0.5534377694 0.1198419780 -0.0592625029
0.5489828587 0.1169238091 -0.0587034225
0.5493876338 0.1150066704 -0.0587034225
0.5449090600 0.1121369526 -0.0581443422
0.5452971458 0.1102340668 -0.0581443422
0.5407953858 0.1074127108 -0.0575852618
0.5411670804 0.1055242345 -0.0575852618
0.5415320992 0.1036344469 -0.0575852618
0.5418905616 0.1017436907 -0.0575852618
0.5422424078 0.0998514071 -0.0575852618
0.5425876379 0.0979581699 -0.0575852618
0.5380249023 0.0952485651 -0.0570261851
0.5383541584 0.0933698118 -0.0570261851
0.5386767387 0.0914902091 -0.0570261851
0.5389928818 0.0896092057 -0.0570261851
0.5393023491 0.0877273753 -0.0570261851
0.5395753384 0.0860324800 -0.0570261851
0.5398722887 0.0841486529 -0.0570261851
0.5352432132 0.0815668702 -0.0564671047
0.5355247259 0.0796979070 -0.0564671047
0.5308753252 0.0771659762 -0.0559080243
0.5311414599 0.0753122866 -0.0559080243
0.5321412086 0.0678891689 -0.0559080243
0.5323749185 0.0660311207 -0.0559080243
0.5033329725 -0.2657300532 0.0215471294
0.5243358612 -0.2794390023 0.0225635041
0.5496271849 -0.2957036495 0.0237831529
0.5660712719 -0.3073055148 0.0245962515
0.5955251455 -0.3263352513 0.0260191746
0.6292055845 -0.3480258584 0.0276453756
0.6279869080 -0.3502200842 0.0276453756
0.6310962439 -0.3548921049 0.0278486498
0.6385075450 -0.3620872200 0.0282551982
0.6458762288 -0.3693383634 0.0286617484
0.6490230560 -0.3738914430 0.0288650226
0.6520154476 -0.3786955178 0.0290682968
0.6506895423 -0.3809691668 0.0290682968
0.6493557692 -0.3832381666 0.0290682968
0.6480140686 -0.3855025172 0.0290682968
0.6466644406 -0.3877621591 0.0290682968
0.6495634913 -0.3926326036 0.0292715710
0.6481889486 -0.3948976099 0.0292715710
0.6510446668 -0.3998029828 0.0294748470
0.6581028700 -0.4073930383 0.0298813954
0.6608963609 -0.4123625159 0.0300846733
0.6678733230 -0.4200457931 0.0304912217
0.6706037521 -0.4250786602 0.0306944959
0.6774985194 -0.4328544140 0.0311010461
0.6592562795 -0.4242832065 0.0302879475
0.6911489964 -0.4485653937 0.0319141448
0.7228799462 -0.4730751812 0.0335403420
0.7295300364 -0.4811496437 0.0339468941
0.7445916533 -0.4945992827 0.0347599909
0.7428606153 -0.4971953928 0.0347599909
0.8483606577 -0.5730768442 0.0400451347
0.8093222976 -0.5505351424 0.0382156633
3.7546691895 -2.5979533195 0.1841669679
3.7455778122 -2.6110436916 0.1841669679
3.7527801991 -2.6356072426 0.1849800646
3.7476322651 -2.6515812874 0.1851833463
3.7342889309 -2.6617419720 0.1849800646
3.7249748707 -2.6747610569 0.1849800646
3.7156155109 -2.6877472401 0.1849800646
3.7102448940 -2.7036480904 0.1851833463
3.6967611313 -2.7136213779 0.1849800646
3.6872663498 -2.7265090942 0.1849800646
3.6737239361 -2.7363743782 0.1847768128
3.6601572037 -2.7461783886 0.1845735312
3.6465668678 -2.7559208870 0.1843702495
3.6369247437 -2.7686328888 0.1843702495
3.6232774258 -2.7782664299 0.1841669679
3.6135573387 -2.7908971310 0.1841669679
3.6037931442 -2.8034937382 0.1841669679
3.5939850807 -2.8160564899 0.1841669679
3.5841336250 -2.8285844326 0.1841669679
3.5742380619 -2.8410782814 0.1841669679
3.5681953430 -2.8566644192 0.1843702495
3.5620872974 -2.8722431660 0.1845735312
3.5559139252 -2.8878138065 0.1847768128
3.5429594517 -2.8958044052 0.1845735312
3.5328299999 -2.9081537724 0.1845735312
3.5188148022 -2.9172747135 0.1843702495
1.1763154268 -0.9913685322 0.0609824434
1.2147957087 -1.0386737585 0.0634217411
1.1017042398 -0.9479916692 0.0575267710
1.0983883142 -0.9518315792 0.0575267710
1.1475800276 -1.0018492937 0.0603726208
1.1029365063 -0.9694133997 0.0581365936
1.0883607864 -0.9632814527 0.0575267710
1.0701247454 -0.9537212849 0.0567136705
1.0519689322 -0.9440457225 0.0559005737
1.0338938236 -0.9342551827 0.0550874770
1.0195815563 -0.9277271032 0.0544776469
1.0053277016 -0.9211106896 0.0538678244
0.9911326170 -0.9144062400 0.0532579981
0.9769966602 -0.9076140523 0.0526481755
0.9629203677 -0.9007344246 0.0520383492
0.9489042163 -0.8937675953 0.0514285266
0.9349484444 -0.8867141604 0.0508187041
0.9249598384 -0.8827174902 0.0504121557
0.9146988392 -0.8789861798 0.0500056036
0.9080501199 -0.8786839247 0.0498023294
0.8942893147 -0.8713413477 0.0491925031
0.8663891554 -0.8498548865 0.0477695800
0.8421884179 -0.8317117095 0.0465499312
0.8040218949 -0.7992525697 0.0445171855
0.7696059942 -0.7700891495 0.0426877104
0.7284019589 -0.7335678339 0.0404516868
0.7118825912 -0.7218015194 0.0396385863
0.6745980978 -0.6883993149 0.0376058370
0.6618004441 -0.6799488068 0.0369960144
0.6456192732 -0.6678050160 0.0361829177
0.6295311451 -0.6555566788 0.0353698172
0.6135364771 -0.6432042718 0.0345567167
0.5942229629 -0.6271001101 0.0335403420
0.5818299055 -0.6181896925 0.0329305194
0.5695064068 -0.6092004776 0.0323206931
0.5606274009 -0.6038168669 0.0319141448
0.5551546812 -0.6020744443 0.0317108706
0.5497009158 -0.6003012657 0.0315075964
0.5442664027 -0.5984973311 0.0313043222
0.5390594006 -0.5964747071 0.0311010461
0.5336630344 -0.5946116447 0.0308977719
0.5183925033 -0.5814602971 0.0300846733
0.5065051913 -0.5719738603 0.0294748470
0.4881472588 -0.5548605919 0.0284584742
0.4796905220 -0.5489872694 0.0280519240
0.4907521307 -0.5658516288 0.0288650226
0.4887740016 -0.5675611496 0.0288650226
0.5093201995 -0.5960100889 0.0302879475
0.5136471987 -0.6054484844 0.0306944959
