0.9447531700 -0.8623536825 0.0344064943
0.9121869206 -0.8387101889 0.0332966074
0.8834795952 -0.8182301521 0.0323254578
0.8512564301 -0.7941675782 0.0312155709
0.8301874399 -0.7801067233 0.0305218920
0.8092271090 -0.7659086585 0.0298282094
0.7883763909 -0.7515739799 0.0291345306
0.7676357031 -0.7371033430 0.0284408536
0.7506163716 -0.7259534597 0.0278859101
0.7303342223 -0.7109701633 0.0271922294
0.7134982944 -0.6995947957 0.0266372859
0.6967508793 -0.6881107092 0.0260823444
0.6800925136 -0.6765183210 0.0255273990
0.6599729657 -0.6613007784 0.0248337202
0.6435066462 -0.6494811177 0.0242787767
0.6271309853 -0.6375547051 0.0237238333
0.6143603921 -0.6290764809 0.0233076252
0.6051581502 -0.6240837574 0.0230301544
0.5994871259 -0.6226134300 0.0228914190
0.5903574824 -0.6175200939 0.0226139463
0.5847345591 -0.6159738898 0.0224752109
0.5756784081 -0.6107807159 0.0221977383
0.5701043606 -0.6091591716 0.0220590029
0.5611227751 -0.6038669944 0.0217815302
0.5521851778 -0.5985196233 0.0215040594
0.5432918668 -0.5931173563 0.0212265886
0.5344430208 -0.5876603127 0.0209491160
0.5222643614 -0.5784620643 0.0205329098
0.5101564527 -0.5691860914 0.0201166999
0.5014686584 -0.5635430217 0.0198392291
0.4894907176 -0.5541244149 0.0194230210
0.4775847197 -0.5446292162 0.0190068148
0.4692490697 -0.5386390686 0.0187293421
0.4739621580 -0.5477846265 0.0190068148
0.4786170423 -0.5569696426 0.0192842856
0.5028441548 -0.5888639688 0.0203941725
0.5007855892 -0.5906156301 0.0203941725
0.5084569454 -0.6037635207 0.0208103806
0.5322026014 -0.6360341311 0.0219202656
3.3624446392 -4.0027408600 0.1440078318
3.3516571522 -4.0182881355 0.1441465616
3.3408021927 -4.0338091850 0.1442853063
3.3330585957 -4.0531606674 0.1445627809
3.3220548630 -4.0686388016 0.1447015107
3.3109838963 -4.0840892792 0.1448402405
3.2998456955 -4.0995125771 0.1449789852
3.2886397839 -4.1149072647 0.1451177150
3.2773668766 -4.1302733421 0.1452564448
3.2660264969 -4.1456112862 0.1453951895
3.2546191216 -4.1609206200 0.1455339193
3.2462141514 -4.1801452637 0.1458114088
3.2346584797 -4.1954059601 0.1459501237
3.2230362892 -4.2106370926 0.1460888684
3.2113468647 -4.2258386612 0.1462276131
3.1995904446 -4.2410092354 0.1463663429
3.1877670288 -4.2561492920 0.1465050727
3.1594421864 -4.2461094856 0.1458114088
3.1535220146 -4.2691636086 0.1462276131
3.0971660614 -4.2237591743 0.1442853063
3.0794577599 -4.2305064201 0.1441465616
3.1350264549 -4.3383855820 0.1474762261
3.1227805614 -4.3533606529 0.1476149559
3.1133718491 -4.3723716736 0.1478924304
3.0663130283 -4.3383483887 0.1463663429
2.7104983330 -3.9223783016 0.1312441379
2.7024533749 -3.9400527477 0.1315215975
2.6858663559 -3.9453334808 0.1313828528
2.6748812199 -3.9588232040 0.1315215975
2.6610457897 -3.9681360722 0.1315215975
2.6499521732 -3.9815585613 0.1316603422
2.6360378265 -3.9907844067 0.1316603422
2.6248362064 -4.0041384697 0.1317990720
2.6108431816 -4.0132765770 0.1317990720
2.5995340347 -4.0265617371 0.1319378167
2.5854628086 -4.0356111526 0.1319378167
2.5713601112 -4.0446119308 0.1319378167
2.5572261810 -4.0535626411 0.1319378167
2.5457174778 -4.0666975975 0.1320765465
2.5315065384 -4.0755591393 0.1320765465
2.5198919773 -4.0886230469 0.1322152764
2.5018074512 -4.0879988670 0.1319378167
2.1146206856 -3.5394711494 0.1133472100
2.1099145412 -3.5597198009 0.1137634143
2.1254043579 -3.6144196987 0.1152895018
2.1077272892 -3.6131887436 0.1150120348
2.1076462269 -3.6421380043 0.1157057211
2.1024010181 -3.6624674797 0.1161219180
2.0970396996 -3.6828043461 0.1165381223
2.0915617943 -3.7031483650 0.1169543266
2.0884160995 -3.7278563976 0.1175092831
2.0826895237 -3.7482213974 0.1179254875
2.0768463612 -3.7685914040 0.1183416918
2.0708861351 -3.7889664173 0.1187578961
2.0600347519 -3.8005633354 0.1188966334
2.0467560291 -3.8077309132 0.1188966334
2.0334520340 -3.8148522377 0.1188966334
2.0201232433 -3.8219270706 0.1188966334
2.0114212036 -3.8378036022 0.1191741154
2.0026328564 -3.8536655903 0.1194515824
1.9937584400 -3.8695130348 0.1197290570
1.9847973585 -3.8853449821 0.1200065240
1.9757502079 -3.9011619091 0.1202839985
1.9666166306 -3.9169626236 0.1205614656
1.9573968649 -3.9327473640 0.1208389401
1.9458742142 -3.9440355301 0.1209776849
1.9364973307 -3.9597780704 0.1212551445
1.9270343781 -3.9755036831 0.1215326265
1.9174852371 -3.9912106991 0.1218100935
1.9092484713 -4.0062336922 0.1220875680
1.8995318413 -4.0219073296 0.1223650351
1.8897298574 -4.0375623703 0.1226425096
1.8798408508 -4.0531973839 0.1229199767
1.8719587326 -4.0733509064 0.1233361810
1.8598055840 -4.0844068527 0.1234749183
1.8434758186 -4.0863204002 0.1233361810
2.3601863384 -5.3771944046 0.1619047672
2.3573780060 -5.4220542908 0.1630146503
2.3423986435 -5.4394273758 0.1632921100
2.3233973980 -5.4475708008 0.1632921100
2.3102140427 -5.4694557190 0.1637083292
2.2930409908 -5.4820952415 0.1638470590
2.2719748020 -5.4854502678 0.1637083292
2.2452101707 -5.4748568535 0.1631533802
2.2147793770 -5.4548854828 0.1623209715
2.2256166935 -5.5367555618 0.1645407379
2.2136847973 -5.5630598068 0.1650956869
2.2126114368 -5.6172399521 0.1664830446
2.1966288090 -5.6342391968 0.1667605042
2.1841621399 -5.6605181694 0.1673154533
2.1626024246 -5.6634407043 0.1671767235
1.9616032839 -5.2478375435 0.1544130296
1.9345819950 -5.2312221527 0.1537193358
2.0941286087 -5.7848868370 0.1696739644
2.0773010254 -5.8015699387 0.1699514389
2.0620548725 -5.8229150772 0.1703676432
2.0499963760 -5.8536567688 0.1710613221
1.6931134462 -4.9986391068 0.1453951895
1.6772465706 -5.0092563629 0.1455339193
1.6676268578 -5.0387973785 0.1462276131
1.6531447172 -5.0540852547 0.1465050727
1.6370348930 -5.0645794868 0.1466438174
1.6223967075 -5.0797824860 0.1469212919
1.6061639786 -5.0901794434 0.1470600069
1.5913708210 -5.1052951813 0.1473374963
1.5779663324 -5.1251449585 0.1477537006
1.5644432306 -5.1449632645 0.1481699049
1.5508003235 -5.1647496223 0.1485861242
1.5384644270 -5.1892933846 0.1491410583
1.5245671272 -5.2090182304 0.1495572627
1.5105502605 -5.2287092209 0.1499734670
1.4977903366 -5.2531709671 0.1505284160
1.4835189581 -5.2727975845 0.1509446353
1.4691293240 -5.2923874855 0.1513608247
1.4546209574 -5.3119411469 0.1517770290
1.4413012266 -5.3362822533 0.1523319781
1.4265389442 -5.3557662964 0.1527481973
1.4129315615 -5.3800449371 0.1533031464
1.3991726637 -5.4042935371 0.1538580805
1.3852616549 -5.4285116196 0.1544130296
1.3711978197 -5.4526977539 0.1549679637
1.3569827080 -5.4768519402 0.1555229127
1.3426148891 -5.5009732246 0.1560778469
1.3280959129 -5.5250601768 0.1566327959
1.3134250641 -5.5491127968 0.1571877450
1.2986016273 -5.5731301308 0.1577426791
1.2836272717 -5.5971117020 0.1582976282
1.2696052790 -5.6259307861 0.1589913070
1.2532228231 -5.6449627876 0.1594075114
1.2399351597 -5.6785950661 0.1602399349
1.2222124338 -5.6926603317 0.1605173945
1.2054439783 -5.7115597725 0.1609335989
1.3613575697 -6.7969670296 0.1913167685
1.3448472023 -6.8257255554 0.1920104474
1.3267291784 -6.8598165512 0.1928428560
1.3018405437 -6.8594961166 0.1927041113
1.2843177319 -6.8983893394 0.1936752796
1.2647373676 -6.9274106026 0.1943689436
1.2440856695 -6.9514603615 0.1949238926
1.2284829617 -7.0049839020 0.1963112503
1.1946754456 -6.9550514221 0.1947851628
1.1385413408 -7.0707926750 0.1976986080
1.1138521433 -7.0747237206 0.1976986080
1.0761661530 -6.9945993423 0.1953400970
1.0539829731 -7.0131392479 0.1957563013
1.0331428051 -7.0414986610 0.1964499950
1.0114055872 -7.0648503304 0.1970049292
0.9895167947 -7.0881361961 0.1975598782
0.9674787521 -7.1113548279 0.1981148124
0.9426490068 -7.1146883965 0.1981148124
0.8972371221 -6.9593257904 0.1936752796
0.9029662609 -7.2004361153 0.2003345937
0.8699187636 -7.1390523911 0.1985310167
0.7873627543 -6.8619437218 0.1906230897
0.7672994733 -6.8994193077 0.1915942281
0.7459063530 -6.9269003868 0.1922879070
0.7243297100 -6.9543156624 0.1929815859
0.7025716901 -6.9816646576 0.1936752796
0.6806305647 -7.0089459419 0.1943689436
0.6585084796 -7.0361590385 0.1950626224
0.6366567612 -7.0682802200 0.1958950460
0.6141531467 -7.0953555107 0.1965887249
0.5918865204 -7.1273393631 0.1974211335
0.5694031119 -7.1592545509 0.1982535571
0.5467050076 -7.1910986900 0.1990859658
0.5237915516 -7.2228717804 0.1999183893
0.5006619096 -7.2545719147 0.2007507980
0.4773182869 -7.2861981392 0.2015832216
0.4534460306 -7.3127613068 0.2022769004
0.4296906292 -7.3442354202 0.2031093091
0.4054428637 -7.3706421852 0.2038029879
0.3804935813 -7.3869862556 0.2042191923
0.3364661634 -8.1895627975 0.2264169306
0.3088326156 -8.2156581879 0.2271106094
0.2798049748 -8.2066974640 0.2268331498
0.2506886125 -8.1926364899 0.2264169306
0.2216727436 -8.1784734726 0.2260007113
0.1925174296 -8.1542139053 0.2253070474
0.1636379510 -8.1348485947 0.2247520983
0.1376402676 -8.1103363037 0.2240584195
0.1090457961 -8.0907764435 0.2235034704
0.0805906430 -8.0711174011 0.2229485363
0.0522740632 -8.0513572693 0.2223935872
0.0240953472 -8.0314989090 0.2218386531
-0.0039430247 -8.0115413666 0.2212837040
-0.0318428427 -7.9914870262 0.2207287699
-0.0596016347 -7.9713354111 0.2201738209
-0.0872201324 -7.9510874748 0.2196188867
-0.1147679761 -7.9357414246 0.2192026675
-0.1421223283 -7.9153032303 0.2186477184
-0.1694402695 -7.8997678757 0.2182315141
-0.1965291798 -7.8791418076 0.2176765800
-0.2387289852 -7.4679360390 0.2063002437
-0.2637537420 -7.4370865822 0.2054678202
-0.2914319336 -7.4810705185 0.2067164481
-0.1175696403 -2.4808914661 0.0678418353
-0.1235529259 -2.4255523682 0.0663157403
-0.1322795153 -2.4300975800 0.0664544776
-0.1418740451 -2.4495823383 0.0670094267
-0.1492415071 -2.4291148186 0.0664544776
-0.1570937335 -2.4186027050 0.0661770105
-0.1831428260 -2.4267942905 0.0664544776
-0.1904649287 -2.4111900330 0.0660382733
-0.1980803311 -2.4005463123 0.0657607988
-0.2064587772 -2.3998403549 0.0657607988
-0.2143996656 -2.3941259384 0.0656220689
-0.2223034799 -2.3883852959 0.0654833242
-0.2301695496 -2.3826189041 0.0653445944
-0.2384849042 -2.3818008900 0.0653445944
-0.2462934554 -2.3759813309 0.0652058572
-0.2540639937 -2.3701364994 0.0650671273
-0.2617970109 -2.3642661572 0.0649283826
-0.2694918811 -2.3583710194 0.0647896528
-0.2771487534 -2.3524506092 0.0646509156
-0.2847679257 -2.3465061188 0.0645121783
-0.2917403877 -2.3355758190 0.0642347112
-0.2998915017 -2.3345432281 0.0642347112
-0.3086814582 -2.3384387493 0.0643734410
-0.3155218065 -2.3274383545 0.0640959740
-0.4246060252 -2.9127116203 0.0806055367
-0.4347705245 -2.9112117290 0.0806055367
-0.4449297488 -2.9096763134 0.0806055367
-0.4558477104 -2.9130446911 0.0807442740
-0.4660131931 -2.9114358425 0.0807442740
-0.4761734009 -2.9097914696 0.0807442740
-0.4871428609 -2.9130427837 0.0808830112
-0.4973081648 -2.9113245010 0.0808830112
-0.5083176494 -2.9144959450 0.0810217410
-0.5184878707 -2.9127039909 0.0810217410
-0.5277679563 -2.9059572220 0.0808830112
-0.5361055136 -2.8942649364 0.0806055367
-1.3677066565 -7.0147848129 0.1972824037
-1.3883053064 -6.9903559685 0.1967274547
-1.4107233286 -6.9756679535 0.1964499950
-1.4310474396 -6.9511165619 0.1958950460
-1.4532606602 -6.9362936020 0.1956175715
-1.4764254093 -6.9262900352 0.1954788417
-1.4984834194 -6.9113225937 0.1952013671
-1.5236713886 -6.9109320641 0.1953400970
-1.5412486792 -6.8763036728 0.1945076883
-1.5652426481 -6.8708815575 0.1945076883
-1.5858461857 -6.8507657051 0.1940914840
-0.5263082981 -2.2222800255 0.0622924007
-0.5271175504 -2.1912560463 0.0614599884
-0.5277166963 -2.1602540016 0.0606275722
-0.5400197506 -2.1778147221 0.0611825176
-0.5427851677 -2.1565172672 0.0606275722
-0.5490844846 -2.1497638226 0.0604888424
-0.5541008115 -2.1381514072 0.0602113642
-0.5615608692 -2.1362042427 0.0602113642
-0.5664625764 -2.1245660782 0.0599338934
-0.5583620667 -2.0646398067 0.0582690611
-0.5485409498 -1.9999732971 0.0564654954
-0.5548213720 -1.9982401133 0.0564654954
-0.5607991815 -1.9913789034 0.0563267618
-0.5680941343 -1.9893100262 0.0563267618
-0.5729657412 -1.9827102423 0.0561880246
-0.5798830986 -1.9806981087 0.0561880246
-0.5853850245 -1.9738665819 0.0560492910
-0.5911893845 -1.9669173956 0.0559105501
-0.5983945131 -1.9647372961 0.0559105501
-0.6037885547 -1.9578567743 0.0557718202
-0.6106192470 -1.9557372332 0.0557718202
-0.6174421906 -1.9535938501 0.0557718202
-0.6272785068 -1.9609555006 0.0560492910
-0.6387010217 -1.9730309248 0.0564654954
-0.6826320291 -2.0848789215 0.0597951598
-0.6899056435 -2.0824832916 0.0597951598
-0.6987473369 -2.0848052502 0.0599338934
-0.7060202956 -2.0823533535 0.0599338934
-0.7132849097 -2.0798761845 0.0599338934
-0.7205405831 -2.0773737431 0.0599338934
-0.7270632982 -2.0750999451 0.0599338934
-0.7343024611 -2.0725493431 0.0599338934
-0.7415324450 -2.0699734688 0.0599338934
-0.7487533689 -2.0673725605 0.0599338934
-0.7559654713 -2.0647461414 0.0599338934
-0.7614446878 -2.0574033260 0.0597951598
-0.7651424408 -2.0453617573 0.0595176890
-0.7691200972 -2.0331854820 0.0592402145
-0.7712447643 -2.0163347721 0.0588240065
-0.7746976018 -2.0042977333 0.0585465357
-0.7780761123 -1.9922609329 0.0582690611
-0.7832027674 -1.9848791361 0.0581303313
-0.7919654250 -1.9867805243 0.0582690611
-0.7988959551 -1.9840039015 0.0582690611
-0.8058164120 -1.9812031984 0.0582690611
-0.8127273917 -1.9783781767 0.0582690611
-0.8234357834 -1.9847717285 0.0585465357
-0.8341986537 -1.9911146164 0.0588240065
-0.8488880992 -2.0066220760 0.0593789481
-0.8636956215 -2.0220510960 0.0599338934
-0.8746851087 -2.0282123089 0.0602113642
-0.8896962404 -2.0434963703 0.0607663132
-0.8748219013 -1.9899939299 0.0592402145
-0.8595854044 -1.9366205931 0.0577141196
-0.8704043627 -1.9427410364 0.0579915904
-0.8792287111 -1.9442501068 0.0581303313
-0.8818820715 -1.9320652485 0.0578528605
-0.8886207938 -1.9289751053 0.0578528605
-0.8932532072 -1.9213238955 0.0577141196
-0.8978428841 -1.9136641026 0.0575753860
-0.9045174718 -1.9105182886 0.0575753860
-0.9111808538 -1.9073493481 0.0575753860
-0.9178330898 -1.9041571617 0.0575753860
-0.9244743586 -1.9009417295 0.0575753860
-0.9289138913 -1.8932104111 0.0574366488
-0.9355169535 -1.8899562359 0.0574366488
-0.9421083331 -1.8866792917 0.0574366488
-0.9464511275 -1.8789099455 0.0572979152
-0.9530041218 -1.8755946159 0.0572979152
-0.9595452547 -1.8722566366 0.0572979152
-0.9660749435 -1.8688957691 0.0572979152
-0.9725926518 -1.8655121326 0.0572979152
-0.9790984392 -1.8621058464 0.0572979152
-0.9832623005 -1.8542550802 0.0571591780
-0.9897287488 -1.8508116007 0.0571591780
-0.9961833954 -1.8473454714 0.0571591780
-1.0026257038 -1.8438569307 0.0571591780
-1.0090557337 -1.8403458595 0.0571591780
-1.6928704977 -3.0442554951 0.0955890119
-1.7059243917 -3.0426909924 0.0957277417
-1.7140821218 -3.0323629379 0.0955890119
-1.7221883535 -3.0220150948 0.0954502746
-1.7316738367 -3.0165896416 0.0954502746
-1.7402213812 -3.0058929920 0.0953115448
-1.7512267828 -2.9994947910 0.0953115448
-1.7591576576 -2.9890520573 0.0951728001
-1.7659975290 -2.9792075157 0.0950340703
-1.7743470669 -2.9684207439 0.0948953331
-1.7800680399 -2.9533283710 0.0946178585
-1.7877781391 -2.9428210258 0.0944791287
-1.7928328514 -2.9280295372 0.0942016542
-1.7873334885 -2.8962090015 0.0933692381
-1.7974325418 -2.8899521828 0.0933692381
-1.1111282110 -1.7687849998 0.0568817072
-1.1039826870 -1.7437465191 0.0561880246
-1.1100627184 -1.7398823500 0.0561880246
-1.1538183689 -1.7949526310 0.0581303313
-1.8773696423 -2.9043610096 0.0948953331
-1.9011032581 -2.9187512398 0.0955890119
-1.9112802744 -2.9120972157 0.0955890119
-1.9214336872 -2.9054079056 0.0955890119
-1.9315634966 -2.8986833096 0.0955890119
-1.9333311319 -2.8794615269 0.0951728001
-3.6394283772 -5.3881516457 0.1793854684
-3.6076598167 -5.3009977341 0.1768882275
-3.6515488625 -5.3254928589 0.1781368554
-3.6701157093 -5.3127140999 0.1781368554
-3.7000455856 -5.3162889481 0.1786918044
-3.7243120670 -5.3115305901 0.1789692640
-3.7485914230 -5.3066668510 0.1792467386
-3.7699863911 -5.2976241112 0.1793854684
-3.7884552479 -5.2844324112 0.1793854684
-3.8273396492 -5.2995557785 0.1803566366
-3.8634371758 -5.3104276657 0.1811890453
-3.9085116386 -5.3332133293 0.1824376583
-3.9271039963 -5.3195376396 0.1824376583
-3.9516072273 -5.3138237000 0.1827151477
-3.9701321125 -5.2999973297 0.1827151477
-3.9886081219 -5.2861070633 0.1827151477
-4.0040149689 -5.2681698799 0.1825764030
-4.0254149437 -5.2581324577 0.1827151477
-4.0467929840 -5.2480092049 0.1828538626
-4.0375237465 -5.1983032227 0.1816052496
-3.8679816723 -4.9438943863 0.1731423587
-3.8790359497 -4.9225058556 0.1728648990
-3.8868830204 -4.8971829414 0.1724486798
-3.9133059978 -4.8953061104 0.1728648990
-3.5857448578 -4.4211158752 0.1569102556
-3.5885221958 -4.3930773735 0.1563553214
-3.6038348675 -4.3805246353 0.1563553214
-3.6286594868 -4.3794736862 0.1567715406
-3.6535201073 -4.3783020973 0.1571877450
-3.6655697823 -4.3616919518 0.1570490003
-3.6743218899 -4.3412346840 0.1567715406
-3.6991689205 -4.3398027420 0.1571877450
-4.3179812431 -4.9942541122 0.1821601987
-4.3345193863 -4.9799075127 0.1821601987
-4.3551673889 -4.9685082436 0.1822989285
-4.3757882118 -4.9570255280 0.1824376583
-4.3972463608 -4.9446911812 0.1825764030
-4.4186716080 -4.9322676659 0.1827151477
-4.4374890327 -4.9220757484 0.1828538626
-4.4546427727 -4.9065561295 0.1828538626
-4.4717426300 -4.8909769058 0.1828538626
-4.4896392822 -4.8745536804 0.1828538626
-4.5108714104 -4.8617329597 0.1829926074
-4.5278143883 -4.8459577560 0.1829926074
-4.5481252670 -4.8337650299 0.1831313521
-4.5684051514 -4.8214907646 0.1832700819
-4.5852074623 -4.8055152893 0.1832700819
-4.6054134369 -4.7930874825 0.1834088117
-4.6255884171 -4.7805771828 0.1835475564
-4.6457338333 -4.7679834366 0.1836862862
-4.6623487473 -4.7517380714 0.1836862862
-4.6824169159 -4.7389926910 0.1838250309
-4.7024521828 -4.7261652946 0.1839637607
-4.7259907722 -4.7167892456 0.1842412353
-4.7495217323 -4.7073049545 0.1845186949
-4.7694835663 -4.6942067146 0.1846574396
-4.7965550423 -4.6880187988 0.1850736588
-4.8128895760 -4.6712474823 0.1850736588
-4.8543372154 -4.6787180901 0.1860447973
-4.8742485046 -4.6652026176 0.1861835420
-4.8905029297 -4.6481604576 0.1861835420
-17.1132373810 -15.9454698563 0.6481739283
-17.1724662781 -15.8890285492 0.6483126879
-17.1579093933 -15.7647228241 0.6456766725
-29.1409931183 -26.0387344360 1.0836658478
-29.2952537537 -25.9932556152 1.0860244036
-29.1045818329 -25.6429920197 1.0756192207
-29.1299724579 -25.4852886200 1.0732606649
-5.1981840134 -4.5100440979 0.1899293959
-5.1230783463 -4.4135065079 0.1865997463
-5.1498394012 -4.4053525925 0.1870159507
-5.2260937691 -4.4391684532 0.1892357171
-5.3106751442 -4.3848795891 0.1900681406
-5.3259487152 -4.3663153648 0.1900681406
-5.3179144859 -4.3287482262 0.1892357171
-5.3446464539 -4.3195934296 0.1896519363
-5.3480057716 -4.2915163040 0.1892357171
-5.3785796165 -4.2852926254 0.1897906661
-5.4013400078 -4.2726998329 0.1900681406
-5.4280061722 -4.2630901337 0.1904843450
-5.4507322311 -4.2502703667 0.1907618195
-5.4734358788 -4.2373418808 0.1910392791
-5.5000743866 -4.2273569107 0.1914554834
-5.5267105103 -4.2172379494 0.1918717027
-5.5580592155 -4.2090339661 0.1924266517
-5.5759778023 -4.1935882568 0.1925653964
-5.5945854187 -4.1770911217 0.1927041113
-5.9020857811 -4.3750243187 0.2028318346
-5.9374384880 -4.3692221642 0.2035255283
-5.9171042442 -4.3208761215 0.2022769004
-5.9207653999 -4.2903532982 0.2018606812
-5.9032630920 -4.2462878227 0.2007507980
-5.8530015945 -4.1791381836 0.1985310167
-5.7901191711 -4.1037106514 0.1958950460
-5.7104377747 -4.0172595978 0.1927041113
-5.7244257927 -3.9973022938 0.1927041113
-5.7260270119 -3.9687454700 0.1922879070
-5.6904582977 -3.9147024155 0.1906230897
-5.7164654732 -3.9032785892 0.1910392791
-5.7300553322 -3.8833010197 0.1910392791
-5.7560105324 -3.8716540337 0.1914554834
-5.7777996063 -3.8570952415 0.1917329729
-5.8037214279 -3.8451948166 0.1921491772
-5.8254575729 -3.8304097652 0.1924266517
-5.8471593857 -3.8155212402 0.1927041113
-5.8646354675 -3.7978076935 0.1928428560
-5.8862619400 -3.7827243805 0.1931203306
-5.9078540802 -3.7675356865 0.1933977902
-5.9294128418 -3.7522411346 0.1936752796
-5.9509353638 -3.7368433475 0.1939527392
-5.9724230766 -3.7213411331 0.1942302138
-5.9938750267 -3.7057340145 0.1945076883
-6.0152902603 -3.6900227070 0.1947851628
-6.0324025154 -3.6716032028 0.1949238926
-6.0537347794 -3.6556980610 0.1952013671
-6.0750298500 -3.6396887302 0.1954788417
-6.1005806923 -3.6261320114 0.1958950460
-6.1175045967 -3.6073572636 0.1960337907
-6.1473088264 -3.5960876942 0.1965887249
-6.1727871895 -3.5821435452 0.1970049292
-6.1939125061 -3.5655682087 0.1972824037
-6.1195516586 -3.4942934513 0.1945076883
-5.5677227974 -3.0992047787 0.1757783443
-5.4987230301 -3.0381238461 0.1732811034
-5.4759035110 -2.9757599831 0.1718937308
-5.4290871620 -2.9257524014 0.1700901687
-5.4216423035 -2.8973455429 0.1695352197
-5.4322247505 -2.8774557114 0.1695352197
-5.3896560669 -2.8295996189 0.1678703874
-5.3640499115 -2.7922754288 0.1667605042
-5.3338093758 -2.7528684139 0.1655118912
-5.3122553825 -2.7182669640 0.1645407379
-5.2994346619 -2.6883814335 0.1638470590
-5.2775444984 -2.6541197300 0.1628759056
-5.2644219398 -2.6245114803 0.1621822268
-5.2421994209 -2.5905907154 0.1612110734
-5.1883997917 -2.5414364338 0.1592687666
-5.2286987305 -2.5386199951 0.1602399349
-5.2375283241 -2.5203533173 0.1602399349
-5.2598218918 -2.5085227489 0.1606561393
-5.2866129875 -2.4987070560 0.1612110734
-5.4217514992 -2.5165545940 0.1648182124
-5.4350414276 -2.4997065067 0.1649569422
-5.4573726654 -2.4869496822 0.1653731614
-5.4705734253 -2.4699456692 0.1655118912
-5.4791626930 -2.4508335590 0.1655118912
-5.4876837730 -2.4316930771 0.1655118912
-5.5007133484 -2.4145359993 0.1656506211
-5.5182719231 -2.3993146420 0.1659280956
-5.5449681282 -2.3879618645 0.1664830446
-5.5670571327 -2.3744852543 0.1668992490
-5.5891189575 -2.3608851433 0.1673154533
-5.6341996193 -2.3568236828 0.1684253365
-5.6562404633 -2.3428928852 0.1688415557
-5.6967420578 -2.3364391327 0.1698127091
-4.5981078148 -1.8268481493 0.1362386197
-4.5812096596 -1.8016157150 0.1355449408
-4.5874705315 -1.7856135368 0.1355449408
-4.5796895027 -1.7641844749 0.1351287365
-4.5858201981 -1.7481867075 0.1351287365
-4.5918946266 -1.7321687937 0.1351287365
-4.6025934219 -1.7178826332 0.1352674663
-4.6085619926 -1.7018063068 0.1352674663
-4.6144742966 -1.6857093573 0.1352674663
-4.6156320572 -1.6678868532 0.1351287365
-4.6308350563 -1.6551400423 0.1354062110
-4.6412944794 -1.6406362057 0.1355449408
-5.3373346329 -1.8456948996 0.1556616426
-5.4193897247 -1.8529949188 0.1578814238
-5.5204925537 -1.8661651611 0.1606561393
-5.6359686852 -1.8834170103 0.1638470590
-5.7279095650 -1.8920258284 0.1663442999
-5.8199777603 -1.9000153542 0.1688415557
-5.9121708870 -1.9073832035 0.1713387966
-6.0092458725 -1.9156540632 0.1739747822
-6.0873851776 -1.9172481298 0.1760558188
-6.1751508713 -1.9212974310 0.1784143299
-6.2391357422 -1.9173964262 0.1800791472
-6.3079504967 -1.9145256281 0.1818827242
-6.3720326424 -1.9097604752 0.1835475564
-6.4361581802 -1.9045711756 0.1852123737
-6.5051207542 -1.9003624916 0.1870159507
-6.5648603439 -1.8917714357 0.1885420531
-6.6246218681 -1.8827694654 0.1900681406
-6.6786131859 -1.8754973412 0.1914554834
-6.7384166718 -1.8657183647 0.1929815859
-6.7934165001 -1.8542044163 0.1943689436
-6.8522810936 -1.8472042084 0.1958950460
-6.9063396454 -1.8385608196 0.1972824037
-6.9623227119 -1.8223083019 0.1986697614
-7.0170283318 -1.8105152845 0.2000571191
-7.0717349052 -1.7983641624 0.2014444768
-7.1264424324 -1.7858532667 0.2028318346
-7.1811475754 -1.7729820013 0.2042191923
-7.2358493805 -1.7597506046 0.2056065500
-7.2905464172 -1.7461568117 0.2069939226
-7.3403711319 -1.7310535908 0.2082425356
-7.3950467110 -1.7167574167 0.2096298933
-7.4448399544 -1.7009838820 0.2108785212
-7.4994878769 -1.6859831810 0.2122658640
-7.5492424965 -1.6695369482 0.2135144919
-7.5989727974 -1.6527657509 0.2147631198
-7.6437902451 -1.6346189976 0.2158730030
-7.6934638023 -1.6172109842 0.2171216309
-7.7382144928 -1.5984615088 0.2182315141
-7.7829279900 -1.5794172287 0.2193413973
-7.8227009773 -1.5591020584 0.2203125656
-7.8673305511 -1.5394914150 0.2214224488
-7.9072751999 -1.5172605515 0.2223935872
-7.9466404915 -1.4975345135 0.2233647555
-7.9815621376 -1.4738625288 0.2241971642
-8.0213346481 -1.4508475065 0.2251683176
-8.0558738708 -1.4280931950 0.2260007113
-8.0952768326 -1.4059737921 0.2269718647
-8.1296958923 -1.3827555180 0.2278043032
-8.1689805984 -1.3601380587 0.2287754416
-8.2082061768 -1.3372608423 0.2297465950
-8.2473716736 -1.3141285181 0.2307177335
-8.2864742279 -1.2907389402 0.2316888869
-8.3255147934 -1.2670924664 0.2326600552
-8.3644905090 -1.2431889772 0.2336312085
-8.4033994675 -1.2190265656 0.2346023470
-8.4471902847 -1.1953132153 0.2357122451
-8.4859666824 -1.1706228256 0.2366833836
-8.5246725082 -1.1456762552 0.2376545370
-8.5633077621 -1.1204736233 0.2386256754
-8.6018714905 -1.0950131416 0.2395968586
-8.6403598785 -1.0692991018 0.2405679971
-8.6738119125 -1.0427299738 0.2414004058
-8.7121467590 -1.0165226460 0.2423715591
-8.7454376221 -0.9894954562 0.2432039678
-8.7786474228 -0.9622458816 0.2440363914
-8.8117713928 -0.9347787499 0.2448688000
-8.8448104858 -0.9070920944 0.2457012087
-8.8727912903 -0.8786906004 0.2463949025
-8.9056549072 -0.8505829573 0.2472273111
-8.9334535599 -0.8217933178 0.2479209900
-8.9662761688 -0.7917018533 0.2487534136
-8.9940176010 -0.7609539628 0.2494470924
-9.0265083313 -0.7319963574 0.2502794862
-9.0539226532 -0.7024316788 0.2509731948
-9.0812406540 -0.6726844907 0.2516668737
-9.1084613800 -0.6427551508 0.2523605525
-9.1355819702 -0.6126415133 0.2530542314
-9.1626043320 -0.5823487043 0.2537478805
-9.1895256042 -0.5518748164 0.2544415891
-9.2163457870 -0.5212199688 0.2551352680
-9.2430639267 -0.4903846383 0.2558289468
-9.2646865845 -0.4591163695 0.2563838959
-9.2911949158 -0.4279384017 0.2570775449
-9.3176002502 -0.3965809643 0.2577712536
-9.3438978195 -0.3650443554 0.2584649026
-9.3700895309 -0.3333290219 0.2591586113
-9.3961734772 -0.3014327586 0.2598522902
-9.4221477509 -0.2693609595 0.2605459392
-9.4480133057 -0.2371114790 0.2612396479
-9.4737672806 -0.2046846896 0.2619332969
-9.4994106293 -0.1720810086 0.2626270056
-9.5249404907 -0.1392982602 0.2633206844
-9.5503568649 -0.1063418910 0.2640143335
-9.5756597519 -0.0732097700 0.2647080421
-9.6008605957 -0.0365502760 0.2654017210
-9.6259202957 -0.0030591064 0.2660953999
-9.6508617401 0.0306065530 0.2667890787
-9.6756858826 0.0644488633 0.2674827278
-9.6953935623 0.0984143168 0.2680377066
-9.7199792862 0.1325835586 0.2687313557
-9.7394475937 0.1668427736 0.2692863345
-9.7587928772 0.2012394816 0.2698412538
-9.7780189514 0.2357759029 0.2703962028
-9.8021163940 0.2705815732 0.2710898817
-9.8210964203 0.3054057062 0.2716448307
-9.8399505615 0.3403656185 0.2721997499
-9.8586807251 0.3754609227 0.2727547288
-9.8722915649 0.4104887247 0.2731709182
-9.8907709122 0.4458359182 0.2737258673
-9.9041318893 0.4810773432 0.2741420865
-9.9223575592 0.5166746378 0.2746970057
-9.9404563904 0.5524050593 0.2752519548
-9.9534358978 0.5879786015 0.2756681442
-9.9662885666 0.6236469150 0.2760843635
-9.9839992523 0.6597389579 0.2766393125
-9.9965944290 0.6956179738 0.2770555317
-10.0139179230 0.7337041497 0.2776104808
-10.0259771347 0.7732946277 0.2780266702
-10.0383043289 0.8077328801 0.2784428895
-10.0503664017 0.8440145254 0.2788591087
-10.0622959137 0.8803901076 0.2792752981
-10.0740957260 0.9168593884 0.2796915174
-10.0857610703 0.9534215927 0.2801077068
-10.0972957611 0.9900792241 0.2805239260
-10.1136693954 1.0273287296 0.2810788751
-10.1249341965 1.0641847849 0.2814950645
-10.1360654831 1.1011319160 0.2819112837
-10.1470623016 1.1381697655 0.2823275030
-10.1579227448 1.1753003597 0.2827436924
-10.1686477661 1.2125180960 0.2831599116
-10.1792364120 1.2498247623 0.2835761011
-10.1896886826 1.2872203588 0.2839923203
-10.2000045776 1.3247040510 0.2844085395
-10.2101812363 1.3622781038 0.2848247290
-10.2202205658 1.3999365568 0.2852409482
-10.2301216125 1.4376817942 0.2856571674
-10.2349348068 1.4748027325 0.2859345973
-10.2445592880 1.5127024651 0.2863508165
-10.2491006851 1.5499452353 0.2866283059
-10.2584466934 1.5879974365 0.2870444953
-10.2627153397 1.6253544092 0.2873219848
-10.2668476105 1.6627606153 0.2875994444
-10.2751808167 1.7046167850 0.2880156636
-10.2790241241 1.7421381474 0.2882931232
-10.2876567841 1.7805570364 0.2887093425
-10.2912225723 1.8181931973 0.2889868021
-10.2946519852 1.8558731079 0.2892642915
-10.2930269241 1.8926975727 0.2894030213
-10.2961835861 1.9304519892 0.2896804810
-10.2992019653 1.9682514668 0.2899579704
-10.3020811081 2.0060982704 0.2902354300
-10.2999191284 2.0430164337 0.2903741896
-10.2976245880 2.0799438953 0.2905128896
-10.3000936508 2.1178843975 0.2907903790
-11.7478504181 2.5432944298 0.3325498700
-11.7193756104 2.5799963474 0.3319949508
-11.6956644058 2.6176199913 0.3315787315
-6.1397724152 1.3992719650 0.1736973077
-6.1543312073 1.4251904488 0.1742522418
-6.2320446968 1.4660519361 0.1766107529
-6.2657866478 1.4970561266 0.1777206361
-11.5656108856 2.8013737202 0.3292202055
-11.5266380310 2.8345794678 0.3283877969
-11.5069732666 2.8723835945 0.3281103373
-11.4823398590 2.9088563919 0.3276941180
-11.4382266998 2.9402241707 0.3267229497
-11.4037103653 2.9738376141 0.3260293007
-11.3642644882 3.0059697628 0.3251968622
-11.3585300446 3.0469152927 0.3253355920
-11.3376407623 3.0859034061 0.3250581622
-11.3166170120 3.1247823238 0.3247806728
-11.2960128784 3.1615750790 0.3245031834
-11.2704811096 3.1969003677 0.3240869641
-11.2448415756 3.2320864201 0.3236707747
-11.2190914154 3.2671351433 0.3232545555
-11.1932353973 3.3020403385 0.3228383362
-11.1720628738 3.3382341862 0.3225609064
-11.1459884644 3.3728744984 0.3221446872
-11.1245880127 3.4088358879 0.3218671978
-6.9542102814 2.1596107483 0.2010282725
-6.9418601990 2.1823763847 0.2008895278
-11.0596981049 3.5160717964 0.3210347891
-11.0140476227 3.5439543724 0.3200636506
-10.9825973511 3.5761971474 0.3195087016
-10.9700460434 3.6145141125 0.3195087016
-10.9431362152 3.6480488777 0.3190925121
-7.4677791595 2.5202727318 0.2176765800
-7.5109786987 2.5640513897 0.2192026675
-10.8712568283 3.7510449886 0.3181213439
-10.8439369202 3.7840385437 0.3177051246
-10.8212337494 3.8185453415 0.3174276650
-10.7937145233 3.8512625694 0.3170114756
-10.7708015442 3.8855278492 0.3167339861
-10.7477798462 3.9196801186 0.3164565265
-10.7192707062 3.9538650513 0.3160403073
-10.6953401566 3.9896359444 0.3157628477
-10.6673154831 4.0216646194 0.3153466284
-10.6438694000 4.0553207397 0.3150691390
-10.6156539917 4.0870690346 0.3146529496
-10.5920047760 4.1204791069 0.3143754900
-10.5682516098 4.1537742615 0.3140980005
-10.5443944931 4.1869564056 0.3138205111
-10.5204372406 4.2200202942 0.3135430813
-10.5010089874 4.2548422813 0.3134043217
-10.4768400192 4.2876892090 0.3131268620
-10.4525690079 4.3204197884 0.3128493726
-10.4281969070 4.3530354500 0.3125719130
-10.4037265778 4.3855314255 0.3122944534
-10.3791551590 4.4179091454 0.3120169640
-10.3544845581 4.4501686096 0.3117395043
-10.3297157288 4.4823102951 0.3114620149
-10.3048486710 4.5143361092 0.3111845553
-10.2798833847 4.5462398529 0.3109070957
-10.2548217773 4.5780243874 0.3106296062
-10.2296638489 4.6096897125 0.3103521168
-10.2089605331 4.6433019638 0.3102133870
-10.1836032867 4.6747460365 0.3099359274
-10.1626873016 4.7081656456 0.3097971976
-10.1416616440 4.7414960861 0.3096584678
-10.1160068512 4.7726068497 0.3093809783
-10.0947723389 4.8057422638 0.3092422485
-10.0734281540 4.8387904167 0.3091034889
-10.0474796295 4.8695683479 0.3088260591
-10.0259294510 4.9024167061 0.3086872995
-9.9997892380 4.9329652786 0.3084098399
-9.9771652222 4.9673590660 0.3082710803
-9.9544258118 5.0016503334 0.3081323504
-9.9279861450 5.0318546295 0.3078548908
-9.9059114456 5.0642056465 0.3077161610
-9.8792867661 5.0941753387 0.3074386716
-9.8570089340 5.1263251305 0.3072999418
-9.8302001953 5.1560616493 0.3070224822
-9.8077220917 5.1880111694 0.3068837225
-9.7807321548 5.2175140381 0.3066062927
-9.7580575943 5.2492570877 0.3064675331
-9.7308855057 5.2785243988 0.3061900735
-9.7080144882 5.3100624084 0.3060513139
-9.6850414276 5.3415079117 0.3059125841
-9.6619672775 5.3728547096 0.3057738543
-9.6431541443 5.4065480232 0.3057738543
-9.6198711395 5.4377183914 0.3056350946
-9.6008319855 5.4712643623 0.3056350946
-9.5773391724 5.5022587776 0.3054963946
-9.5580749512 5.5356559753 0.3054963946
-9.5343761444 5.5664677620 0.3053576648
-9.5105791092 5.5971813202 0.3052189052
-9.4909839630 5.6303448677 0.3052189052
-9.4669799805 5.6608791351 0.3050801754
-9.4471626282 5.6938900948 0.3050801754
-9.4229574203 5.7242388725 0.3049414456
-9.4071826935 5.7597036362 0.3050801754
-9.3827657700 5.7898821831 0.3049414456
-9.3667421341 5.8252387047 0.3050801754
-0.9160239100 0.5800327659 0.0289957952
-0.9138917923 0.5833863616 0.0289957952
-0.9078369141 0.5835726261 0.0288570598
-0.9141075015 0.5922906399 0.0291345306
-0.9119305611 0.5956369042 0.0291345306
-0.9140341282 0.6015439630 0.0292732678
-0.9119288325 0.6047308445 0.0292732678
-0.9098123908 0.6079103351 0.0292732678
-0.9076848626 0.6110824347 0.0292732678
-0.9096962214 0.6170325279 0.0294120032
-0.9075366855 0.6202043891 0.0294120032
-0.9053663015 0.6233684421 0.0294120032
-0.9031848311 0.6265249252 0.0294120032
-0.9009923935 0.6296737790 0.0294120032
-0.8987889886 0.6328149438 0.0294120032
-0.8965744376 0.6359486580 0.0294120032
-0.8943490982 0.6390743256 0.0294120032
-0.8921129107 0.6421922445 0.0294120032
-0.8898658752 0.6453023553 0.0294120032
-0.8876079321 0.6484045982 0.0294120032
-0.8853390217 0.6514991522 0.0294120032
-0.8830595016 0.6545855403 0.0294120032
-0.8807692528 0.6576640010 0.0294120032
-0.8784682155 0.6607344151 0.0294120032
-0.8761565089 0.6637967229 0.0294120032
-0.8738339543 0.6668512225 0.0294120032
-0.8675235510 0.6668707132 0.0292732678
-0.8651904464 0.6698948145 0.0292732678
-0.8628468513 0.6729107499 0.0292732678
-0.8564296961 0.6729999781 0.0291345306
-0.8538392186 0.6762834787 0.0291345306
-0.8518289328 0.6788138151 0.0291345306
-0.8493353128 0.6819312572 0.0291345306
-0.8468301296 0.6850397587 0.0291345306
-0.8483240008 0.6911294460 0.0292732678
-0.8459063768 0.6940864325 0.0292732678
-0.8434784412 0.6970348954 0.0292732678
-0.8410400748 0.6999751329 0.0292732678
-0.8385916352 0.7029066086 0.0292732678
-0.8361329436 0.7058295012 0.0292732678
-0.8336640596 0.7087438107 0.0292732678
-0.8311850429 0.7116494775 0.0292732678
-0.8286957145 0.7145466805 0.0292732678
-0.8261964917 0.7174349427 0.0292732678
-0.8236871958 0.7203145027 0.0292732678
-0.8211678267 0.7231853008 0.0292732678
-0.8186385036 0.7260472775 0.0292732678
-0.8160989881 0.7289005518 0.0292732678
-0.8135496974 0.7317448258 0.0292732678
-0.8109905124 0.7345801592 0.0292732678
-0.8121304512 0.7407566905 0.0294120032
-0.8095398545 0.7435870171 0.0294120032
-0.8069391251 0.7464084625 0.0294120032
-0.8043287992 0.7492206097 0.0294120032
-0.8017086983 0.7520236373 0.0294120032
-0.7990787625 0.7548174858 0.0294120032
-0.7964391708 0.7576021552 0.0294120032
-0.7937896252 0.7603778243 0.0294120032
-0.7911306024 0.7631439567 0.0294120032
-0.7884619832 0.7659008503 0.0294120032
-0.7857837081 0.7686483860 0.0294120032
-0.7830958962 0.7713865638 0.0294120032
-0.7839637995 0.7776181102 0.0295507386
-0.7812446356 0.7803498507 0.0295507386
-0.7785159945 0.7830721140 0.0295507386
-0.7757778764 0.7857848406 0.0295507386
-0.7730302811 0.7884879708 0.0295507386
-0.7737768888 0.7947459817 0.0296894740
-0.7709980607 0.7974420786 0.0296894740
-0.7680702209 0.8002625108 0.0296894740
-0.7651318312 0.8030723333 0.0296894740
-0.7623239756 0.8057382107 0.0296894740
-0.7597888112 0.8081291914 0.0296894740
-0.7568218708 0.8109084368 0.0296894740
-0.7538445592 0.8136769533 0.0296894740
-0.7509997487 0.8163033724 0.0296894740
-0.7481458187 0.8189198375 0.0296894740
-0.7452827096 0.8215263486 0.0296894740
-0.7424103618 0.8241230249 0.0296894740
-0.7395291328 0.8267094493 0.0296894740
-0.7366389632 0.8292858005 0.0296894740
-0.7337397337 0.8318520784 0.0296894740
-0.7341427803 0.8381521106 0.0298282094
-0.7312124372 0.8407098055 0.0298282094
-0.7315583229 0.8470239639 0.0299669467
-0.7285972834 0.8495724201 0.0299669467
-0.7256273031 0.8521104455 0.0299669467
-0.7226485014 0.8546381593 0.0299669467
-0.7196606994 0.8571556211 0.0299669467
-0.7166643143 0.8596624136 0.0299669467
-0.7136592269 0.8621587753 0.0299669467
-0.7138373256 0.8684906960 0.0301056821
-0.7108014226 0.8709771037 0.0301056821
-0.7077566385 0.8734531403 0.0301056821
-0.7078550458 0.8797976971 0.0302444212
-0.7047796845 0.8822631240 0.0302444212
-0.7048200965 0.8886190653 0.0303831566
-0.7017139792 0.8910738826 0.0303831566
-0.6985991001 0.8935180306 0.0303831566
-0.6954759359 0.8959511518 0.0303831566
-0.6923443079 0.8983733058 0.0303831566
-0.6892042160 0.9007845521 0.0303831566
-0.6860557199 0.9031847715 0.0303831566
-0.6856094003 0.9097898006 0.0305218920
-0.6824294925 0.9121774435 0.0305218920
-0.6792410612 0.9145541787 0.0305218920
-0.6760445833 0.9169195294 0.0305218920
-0.6728398204 0.9192737937 0.0305218920
-0.6666701436 0.9175871611 0.0303831566
-0.6634631157 0.9199086428 0.0303831566
-0.6631764174 0.9262692928 0.0305218920
-0.6628535986 0.9326388836 0.0306606274
-0.6595941186 0.9349469543 0.0306606274
-0.6592125893 0.9413242936 0.0307993628
-0.6559227705 0.9436196089 0.0307993628
-0.6526247263 0.9459035397 0.0307993628
-0.6493189931 0.9481758475 0.0307993628
-0.6460053325 0.9504365921 0.0307993628
-0.6454982162 0.9568161368 0.0309381001
-0.6421543956 0.9590634704 0.0309381001
-0.6415880322 0.9654492140 0.0310768355
-0.6409850717 0.9718424678 0.0312155709
-0.6375888586 0.9740740061 0.0312155709
-0.6369267702 0.9804724455 0.0313543081
-0.6335003972 0.9826897383 0.0313543081
-0.6300661564 0.9848952293 0.0313543081
-0.6266244054 0.9870885015 0.0313543081
-0.6258583069 0.9934865236 0.0314930417
-0.6223866343 0.9956651330 0.0314930417
-0.6189073920 0.9978315830 0.0314930417
-0.6180592775 1.0042306185 0.0316317789
-0.6145501733 1.0063818693 0.0316317789
-0.6110334992 1.0085208416 0.0316317789
-0.6101038456 1.0149196386 0.0317705125
-0.6065574288 1.0170431137 0.0317705125
-0.6030033827 1.0191543102 0.0317705125
-0.5994422436 1.0212528706 0.0317705125
-0.5958737731 1.0233391523 0.0317705125
-0.5922980905 1.0254127979 0.0317705125
-0.5887151957 1.0274740458 0.0317705125
-0.5851248503 1.0295228958 0.0317705125
-0.5815276504 1.0315591097 0.0317705125
-0.5779232979 1.0335826874 0.0317705125
-0.5743119717 1.0355936289 0.0317705125
-0.5731220841 1.0419604778 0.0319092497
-0.5718944669 1.0483317375 0.0320479870
-0.5680484176 1.0504207611 0.0320479870
-0.5665755272 1.0568902493 0.0321867205
-0.5632525682 1.0586649179 0.0321867205
-0.5617195368 1.0651328564 0.0323254578
-0.5576255918 1.0672818422 0.0323254578
-0.5564026833 1.0735523701 0.0324641913
-0.5549558997 1.0799233913 0.0326029286
-0.5557599664 1.0907406807 0.0328803994
-0.5496762395 1.0882226229 0.0327416621
-0.5458743572 1.0901347399 0.0327416621
-0.5734512210 1.1545730829 0.0346839689
-0.5939059854 1.2057914734 0.0362100601
-0.6029570103 1.2347530127 0.0370424762
-0.6030331850 1.2458308935 0.0373199508
-0.5965015292 1.2434302568 0.0371812098
-0.3335996568 0.7263954878 0.0210878514
-0.3394637108 0.7456967235 0.0216427948
-0.3347739577 0.7423346043 0.0215040594
-0.3259746432 0.7298490405 0.0210878514
-0.3254778385 0.7355394959 0.0212265886
-0.3229083717 0.7366711497 0.0212265886
-0.3203350008 0.7377938032 0.0212265886
-0.3157525361 0.7343292832 0.0210878514
-0.3111984134 0.7308416963 0.0209491160
-0.3066724837 0.7273313403 0.0208103806
-0.3021748662 0.7237983346 0.0206716452
-0.2977056801 0.7202428579 0.0205329098
-0.2932648063 0.7166650295 0.0203941725
-0.2888527811 0.7130650878 0.0202554353
-0.2844694853 0.7094430923 0.0201166999
-0.2801150084 0.7057992220 0.0199779645
-0.2776496410 0.7067726851 0.0199779645
-0.2733367682 0.7030921578 0.0198392291
-0.2690531313 0.6993901134 0.0197004937
-0.2647987306 0.6956667304 0.0195617564
-0.2605735958 0.6919222474 0.0194230210
-0.2563778460 0.6881568432 0.0192842856
-0.2522114217 0.6843706965 0.0191455502
-0.2480747402 0.6805638075 0.0190068148
-0.2439677417 0.6767364144 0.0188680794
-0.2398905009 0.6728887558 0.0187293421
-0.2358431071 0.6690208316 0.0185906049
-0.2318254858 0.6651330590 0.0184518695
-0.2278380692 0.6612253785 0.0183131341
-0.2255286276 0.6620166302 0.0183131341
-0.2215850651 0.6580755115 0.0181743987
-0.2176718116 0.6541149020 0.0180356633
-0.2137887478 0.6501351595 0.0178969260
-0.2115180790 0.6508774757 0.0178969260
-0.2076796293 0.6468651891 0.0177581906
-0.2054204047 0.6475861669 0.0177581906
-0.2031587064 0.6482992768 0.0177581906
-0.2008943409 0.6490045190 0.0177581906
-0.1971289068 0.6449337602 0.0176194552
-0.1933943778 0.6408446431 0.0174807198
-0.1896907836 0.6367374063 0.0173419844
-0.1860182732 0.6326121688 0.0172032472
-0.1823767126 0.6284691691 0.0170645118
-0.1787665039 0.6243084669 0.0169257764
-0.1751876026 0.6201301813 0.0167870391
-0.1730218977 0.6207379103 0.0167870391
-0.1694890261 0.6165300608 0.0166483037
-0.1659874916 0.6123051643 0.0165095683
-0.1625176966 0.6080633998 0.0163708311
-0.1603942066 0.6086269617 0.0163708311
-0.1569709331 0.6043565273 0.0162320957
-0.1548604220 0.6049007177 0.0162320957
-0.1514837742 0.6006020904 0.0160933603
-0.1493863761 0.6011272073 0.0160933603
-0.1472871900 0.6016449928 0.0160933603
-0.1439727992 0.5973069072 0.0159546249
-0.1418869793 0.5978057981 0.0159546249
-0.1386197656 0.5934405327 0.0158158895
-0.1365475953 0.5939207673 0.0158158895
-0.1333279312 0.5895287991 0.0156771541
-0.1312691420 0.5899906158 0.0156771541
-0.1280975193 0.5855723023 0.0155384177
-0.1249580309 0.5811392069 0.0153996814
-0.1229288802 0.5815717578 0.0153996814
-0.1198374853 0.5771130919 0.0152609460
-0.1167787090 0.5726400018 0.0151222106
-0.1147792935 0.5730440617 0.0151222106
-0.1127781793 0.5734412670 0.0151222106
-0.1107759699 0.5738314390 0.0151222106
-0.1077970564 0.5693125129 0.0149834733
-0.1058090106 0.5696853399 0.0149834733
-0.1028791443 0.5651425123 0.0148447370
-0.0999819934 0.5605862141 0.0147060016
-0.0971181914 0.5560165644 0.0145672653
-0.0951766446 0.5563521981 0.0145672653
-0.0932339132 0.5566810966 0.0145672653
-0.0904353261 0.5520787239 0.0144285299
-0.0885075480 0.5523910522 0.0144285299
-0.0865789577 0.5526965857 0.0144285299
-0.0838456601 0.5480623841 0.0142897945
-0.0818364099 0.5483660102 0.0142897945
-0.0792485625 0.5436958075 0.0141510582
-0.0775401518 0.5439420938 0.0141510582
-0.0754509866 0.5442358255 0.0141510582
-0.0728335083 0.5395495296 0.0140123228
-0.0709495693 0.5398005247 0.0140123228
-0.0690650567 0.5400448442 0.0140123228
-0.0678447634 0.5452362299 0.0141510582
-0.0646451563 0.5355579853 0.0138735874
-0.0627752244 0.5357803702 0.0138735874
-0.0609045066 0.5359962583 0.0138735874
-0.0515408069 0.5369775295 0.0138735874
0.1198062971 0.5310978293 0.0140123228
0.1626084447 0.7058800459 0.0190068148
0.1650715768 0.7053081393 0.0190068148
0.1708929092 0.7193404436 0.0194230210
0.1734026074 0.7187395692 0.0194230210
0.1747565269 0.7132668495 0.0192842856
0.1772450209 0.7126525640 0.0192842856
0.1797316968 0.7120294571 0.0192842856
0.1810112894 0.7065470219 0.0191455502
0.1834762692 0.7059109807 0.0191455502
0.1856929660 0.7053310871 0.0191455502
0.1881540418 0.7046785355 0.0191455502
0.1906128228 0.7040174603 0.0191455502
0.1917812228 0.6985185146 0.0190068148
0.1942184865 0.6978448033 0.0190068148
0.1966530383 0.6971626282 0.0190068148
0.1977473199 0.6916562915 0.0188680794
0.2001605928 0.6909617782 0.0188680794
0.2025710642 0.6902589798 0.0188680794
0.2049794346 0.6895475984 0.0188680794
0.2073849440 0.6888279319 0.0188680794
0.2097882628 0.6880998015 0.0188680794
0.2121890485 0.6873632669 0.0188680794
0.2145868838 0.6866184473 0.0188680794
0.2169824690 0.6858652234 0.0188680794
0.2178862691 0.6803324819 0.0187293421
0.2202598751 0.6795677543 0.0187293421
0.2226308137 0.6787946820 0.0187293421
0.2234599739 0.6732581258 0.0185906049
0.2258088589 0.6724739671 0.0185906049
0.2281546593 0.6716817021 0.0185906049
0.2304980010 0.6708811522 0.0185906049
0.2328385562 0.6700724363 0.0185906049
0.2351759076 0.6692556739 0.0185906049
0.2375107557 0.6684306264 0.0185906049
0.2414968014 0.6723139286 0.0187293421
0.2421713918 0.6667562127 0.0185906049
0.2444974631 0.6659067869 0.0185906049
0.2485239357 0.6697481275 0.0187293421
0.2508604228 0.6688764691 0.0187293421
0.2514570355 0.6633100510 0.0185906049
0.2537710071 0.6624282002 0.0185906049
0.2560819089 0.6615383029 0.0185906049
0.2566038966 0.6559721828 0.0184518695
0.2588922381 0.6550723910 0.0184518695
0.2611770928 0.6541647911 0.0184518695
0.2616248429 0.6485997438 0.0183131341
0.2638874352 0.6476824880 0.0183131341
0.2661464512 0.6467574835 0.0183131341
0.2684025764 0.6458244920 0.0183131341
0.2706550956 0.6448836923 0.0183131341
0.2729046345 0.6439349651 0.0183131341
0.2751508653 0.6429783702 0.0183131341
0.2773934007 0.6420140862 0.0183131341
0.2796328962 0.6410418153 0.0183131341
0.2798892856 0.6354724765 0.0181743987
0.2821059227 0.6344915628 0.0181743987
0.2823077440 0.6289274096 0.0180356633
0.2845011950 0.6279382110 0.0180356633
0.2866915166 0.6269412637 0.0180356633
0.2909371853 0.6304909587 0.0181743987
0.2931363583 0.6294714808 0.0181743987
0.2953319550 0.6284443736 0.0181743987
0.2954168916 0.6228773594 0.0180356633
0.2975894809 0.6218423247 0.0180356633
0.2976197898 0.6162822843 0.0178969260
0.2995546758 0.6153441072 0.0178969260
0.3017006218 0.6142948270 0.0178969260
0.3060271144 0.6177335382 0.0180356633
0.3081813753 0.6166616678 0.0180356633
0.3103321493 0.6155821085 0.0180356633
0.3124791980 0.6144950390 0.0180356633
0.3146221042 0.6134005785 0.0180356633
0.3167614639 0.6122985482 0.0180356633
0.3188966811 0.6111892462 0.0180356633
0.3210282922 0.6100723147 0.0180356633
0.3231559992 0.6089479327 0.0180356633
0.3252794743 0.6078162789 0.0180356633
0.3250597715 0.6022603512 0.0178969260
0.3271599114 0.6011220813 0.0178969260
0.3292563260 0.5999763608 0.0178969260
0.3313487470 0.5988233685 0.0178969260
0.3334368467 0.5976631641 0.0178969260
0.3355211616 0.5964955688 0.0178969260
0.3376010954 0.5953208208 0.0178969260
0.3396772146 0.5941386819 0.0178969260
0.3417491913 0.5929493308 0.0178969260
0.3438167274 0.5917528868 0.0178969260
0.3433881104 0.5862166882 0.0177581906
0.3429247737 0.5806909204 0.0176194552
0.3373825550 0.5665456653 0.0172032472
0.3368207514 0.5610584021 0.0170645118
0.3209096193 0.5297992229 0.0160933603
0.3355944157 0.5501168370 0.0167870391
0.3400949240 0.5532214046 0.0169257764
0.3446213901 0.5563010573 0.0170645118
0.3491735160 0.5593557358 0.0172032472
0.3509289622 0.5582560301 0.0172032472
0.3556138277 0.5612093806 0.0173419844
0.3604235351 0.5640727878 0.0174807198
0.3622921109 0.5628744960 0.0174807198
0.3640585840 0.5617335439 0.0174807198
0.3634150326 0.5561894178 0.0173419844
0.3652574420 0.5549811721 0.0173419844
0.3671922982 0.5537029505 0.0173419844
0.3691229522 0.5524177551 0.0173419844
0.3682909608 0.5469577312 0.0172032472
0.3729704916 0.5498273969 0.0173419844
0.3721006513 0.5443730950 0.0172032472
0.3739984334 0.5430710316 0.0172032472
0.3787077665 0.5458915234 0.0173419844
0.3806108236 0.5445663929 0.0173419844
0.3825094700 0.5432344079 0.0173419844
0.3844034970 0.5418958068 0.0173419844
0.3862925768 0.5405508280 0.0173419844
0.3881772161 0.5391989946 0.0173419844
0.3900568485 0.5378408432 0.0173419844
0.3919319808 0.5364759564 0.0173419844
0.3938023448 0.5351045132 0.0173419844
0.3956676424 0.5337267518 0.0173419844
0.3975284100 0.5323422551 0.0173419844
0.3993840516 0.5309514999 0.0173419844
0.4012350738 0.5295540690 0.0173419844
0.4000809789 0.5241528153 0.0172032472
0.4019080102 0.5227531791 0.0172032472
0.4037304223 0.5213469863 0.0172032472
0.4055476487 0.5199346542 0.0172032472
0.4073601961 0.5185158253 0.0172032472
0.4122373462 0.5210350156 0.0173419844
0.4140534103 0.5195930004 0.0173419844
0.4158647060 0.5181444287 0.0173419844
0.4176706970 0.5166897774 0.0173419844
