-1.1278519630 1.6289626360 0.1136564985
-1.1108068228 1.6164652109 0.1124878004
-1.0915981531 1.5993714333 0.1110269204
-1.0747660398 1.5866724253 0.1098582149
-1.0608323812 1.5780103207 0.1089816839
-1.0441900492 1.5651260614 0.1078129783
-1.0298751593 1.5566587448 0.1069364473
-1.0134298801 1.5435853004 0.1057677492
-0.9998252988 1.5345906019 0.1048912182
-0.9835738540 1.5213359594 0.1037225127
-0.9701347351 1.5121800900 0.1028459892
-0.9567712545 1.5029493570 0.1019694582
-0.9461628199 1.4978557825 0.1013851091
-0.9329380393 1.4884849787 0.1005085781
-0.9197903275 1.4790403843 0.0996320471
-0.9067201018 1.4695222378 0.0987555161
-0.8937271833 1.4599313736 0.0978789926
-0.8808127642 1.4502675533 0.0970024616
-0.8679767847 1.4405314922 0.0961259380
-0.8577941656 1.4349999428 0.0955415890
-0.8451011777 1.4251297712 0.0946650580
-0.8350319266 1.4194829464 0.0940807089
-0.8224831223 1.4094799757 0.0932041705
-0.8100144863 1.3994070292 0.0923276469
-0.7976263165 1.3892642260 0.0914511159
-0.7878032923 1.3833814859 0.0908667669
-0.7755614519 1.3731095791 0.0899902359
-0.7658555508 1.3671153784 0.0894058868
-0.7562009692 1.3610702753 0.0888215378
-0.7465979457 1.3549746275 0.0882371813
-0.7370468378 1.3488285542 0.0876528323
-0.7275474072 1.3426325321 0.0870684832
-0.7181006074 1.3363866806 0.0864841267
-0.7087062597 1.3300912380 0.0858997703
-0.6970175505 1.3193414211 0.0850232393
-0.6877444386 1.3129398823 0.0844388902
-0.6785241961 1.3064898252 0.0838545412
-0.6689038277 1.3002249002 0.0832701847
-0.6575095057 1.2892370224 0.0823936611
-0.6511861682 1.2868508101 0.0821014866
-0.6399270892 1.2757560015 0.0812249556
-0.6350237727 1.2782037258 0.0812249556
-0.6238927841 1.2670035362 0.0803484321
-0.6132864356 1.2555271387 0.0794719011
-0.3340962231 0.7085495591 0.0435342416
-0.3637713194 0.7773290277 0.0479168817
-0.3525452316 0.7605329156 0.0467481725
-0.3520002365 0.7662816048 0.0470403545
-0.3472272456 0.7629755139 0.0467481725
-0.3424816728 0.7596455812 0.0464559980
-0.3377633989 0.7562919855 0.0461638235
-0.3330729306 0.7529146075 0.0458716452
-0.3284101784 0.7495138049 0.0455794707
-0.3237752616 0.7460896969 0.0452872962
-0.3191682696 0.7426424026 0.0449951179
-0.3145891130 0.7391721010 0.0447029434
-0.3100383282 0.7356789708 0.0444107689
-0.3074684739 0.7367566824 0.0444107689
-0.3029581904 0.7332250476 0.0441185907
-0.2984763384 0.7296708822 0.0438264161
-0.2940228581 0.7260945439 0.0435342416
-0.2895981669 0.7224960327 0.0432420634
-0.2833299041 0.7142484188 0.0426577106
-0.2789789438 0.7105995417 0.0423655324
-0.2746569216 0.7069290280 0.0420733579
-0.2703637481 0.7032371163 0.0417811796
-0.2660999298 0.6995238662 0.0414890051
-0.2618653178 0.6957894564 0.0411968306
-0.2576600611 0.6920341253 0.0409046523
-0.2534842491 0.6882578731 0.0406124778
-0.2493377477 0.6844611168 0.0403203033
-0.2452210635 0.6806437373 0.0400281250
-0.2411340773 0.6768060327 0.0397359505
-0.2370769083 0.6729481220 0.0394437760
-0.2347264588 0.6737715602 0.0394437760
-0.2307125330 0.6698796153 0.0391515940
-0.2283728570 0.6706808805 0.0391515940
-0.2244028598 0.6667552590 0.0388594195
-0.2220741212 0.6675345302 0.0388594195
-0.2181481123 0.6635757089 0.0385672450
-0.2142523080 0.6595977545 0.0382750668
-0.2103871405 0.6556006670 0.0379828922
-0.2065524757 0.6515847445 0.0376907177
-0.2027484626 0.6475500464 0.0373985395
-0.2004868686 0.6482537985 0.0373985395
-0.1967275441 0.6441874504 0.0371063650
-0.1944777519 0.6448702216 0.0371063650
-0.1907637268 0.6407725811 0.0368141904
-0.1870806962 0.6366568804 0.0365220122
-0.1848572344 0.6373060346 0.0365220122
-0.1812195629 0.6331598163 0.0362298377
-0.1776132882 0.6289960146 0.0359376632
-0.1754166186 0.6296121478 0.0359376632
-0.1718562543 0.6254184842 0.0356454849
-0.1683272719 0.6212075949 0.0353533067
-0.1648296714 0.6169798970 0.0350611322
-0.1626750380 0.6175515056 0.0350611322
-0.1592240036 0.6132948399 0.0347689539
-0.1570822895 0.6138468981 0.0347689539
-0.1536779106 0.6095618606 0.0344767794
-0.1515490711 0.6100946069 0.0344767794
-0.1479802430 0.6058332920 0.0341846012
-0.1458644569 0.6063461304 0.0341846012
-0.1425555646 0.6020044684 0.0338924266
-0.1392786652 0.5976471305 0.0336002521
-0.1371918023 0.5981296301 0.0336002521
-0.1339623481 0.5937455297 0.0333080739
-0.1318891495 0.5942094922 0.0333080739
-0.1298140436 0.5946662426 0.0333080739
-0.1266476661 0.5902447701 0.0330158994
-0.1245867237 0.5906832218 0.0330158994
-0.1214683205 0.5862360001 0.0327237248
-0.1183827668 0.5817741752 0.0324315466
-0.1163511574 0.5821838975 0.0324315466
-0.1133136153 0.5776971579 0.0321393721
-0.1112965494 0.5780891776 0.0321393721
-0.1083074957 0.5735779405 0.0318471976
-0.1063048393 0.5739524961 0.0318471976
-0.1043006033 0.5743200779 0.0318471976
-0.1013760641 0.5697745085 0.0315550156
-0.0993867218 0.5701248646 0.0315550156
-0.0965111479 0.5655559301 0.0312628411
-0.0945365578 0.5658893585 0.0312628411
-0.0925605372 0.5662159324 0.0312628411
-0.0897501335 0.5616141558 0.0309706647
-0.0877893493 0.5619240403 0.0309706647
-0.0858272314 0.5622270703 0.0309706647
-0.0838643312 0.5625231862 0.0309706647
-0.0811356455 0.5578799844 0.0306784902
-0.0791876912 0.5581597686 0.0306784902
-0.0765089989 0.5534949899 0.0303863138
-0.0745763779 0.5537587404 0.0303863138
-0.0719475597 0.5490728617 0.0300941374
-0.0700303838 0.5493206978 0.0300941374
-0.0681123734 0.5495617986 0.0300941374
-0.0661937818 0.5497962236 0.0300941374
-0.0636476800 0.5450719595 0.0298019629
-0.0617447868 0.5452907681 0.0298019629
-0.0598408729 0.5455030203 0.0298019629
-0.0579362549 0.5457085967 0.0298019629
-0.0565884337 0.5508677363 0.0300941374
-0.0546651036 0.5510619283 0.0300941374
-0.0511735156 0.5363572836 0.0292176101
-0.0493008532 0.5365326405 0.0292176101
-0.0455540344 0.5368637443 0.0292176101
-0.0436796583 0.5370194912 0.0292176101
-0.0418049954 0.5371686816 0.0292176101
-0.0399295576 0.5373113751 0.0292176101
-0.0384548306 0.5424227715 0.0295097865
0.1184143201 0.5511724949 0.0306784902
0.1213575304 0.5556418896 0.0309706647
0.1315916181 0.5942754149 0.0333080739
0.1557986736 0.6962696314 0.0394437760
0.1635832340 0.7200975418 0.0409046523
0.1671836376 0.7243936062 0.0411968306
0.1697113663 0.7238055468 0.0411968306
0.1711146832 0.7183451056 0.0409046523
0.1736212969 0.7177433968 0.0409046523
0.1761257499 0.7171329260 0.0409046523
0.1774548888 0.7116621137 0.0406124778
0.1799380928 0.7110382915 0.0406124778
0.1824187785 0.7104059458 0.0406124778
0.1848976016 0.7097647786 0.0406124778
0.1871263832 0.7091804743 0.0406124778
0.1896008998 0.7085229158 0.0406124778
0.1920727193 0.7078568339 0.0406124778
0.1945425868 0.7071819901 0.0406124778
0.1957038790 0.7016810775 0.0403203033
0.1981517971 0.7009937167 0.0403203033
0.2005976737 0.7002977133 0.0403203033
0.2030407190 0.6995933056 0.0403203033
0.2054816633 0.6988802552 0.0403203033
0.2079200894 0.6981586814 0.0403203033
0.2103556544 0.6974287033 0.0403203033
0.2127889991 0.6966901422 0.0403203033
0.2152193785 0.6959431767 0.0403203033
0.2176475078 0.6951876283 0.0403203033
0.2200729698 0.6944236755 0.0403203033
0.2224954218 0.6936512589 0.0403203033
0.2249155045 0.6928703785 0.0403203033
0.2273324877 0.6920810938 0.0403203033
0.2297470570 0.6912832856 0.0403203033
0.2306022942 0.6857345104 0.0400281250
0.2329943478 0.6849254370 0.0400281250
0.2337943166 0.6793763638 0.0397359505
0.2361641377 0.6785562038 0.0397359505
0.2385314554 0.6777276397 0.0397359505
0.2392567843 0.6721761823 0.0394437760
0.2416014671 0.6713370085 0.0394437760
0.2439435273 0.6704894900 0.0394437760
0.2462822795 0.6696339846 0.0394437760
0.2486183792 0.6687701344 0.0394437760
0.2509514391 0.6678981781 0.0394437760
0.2515436709 0.6623388529 0.0391515940
0.2538542747 0.6614567041 0.0391515940
0.2561614215 0.6605666280 0.0391515940
0.2584657967 0.6596683860 0.0391515940
0.2607670128 0.6587620974 0.0391515940
0.2630647421 0.6578479409 0.0391515940
0.2653596103 0.6569256186 0.0391515940
0.2676508725 0.6559954286 0.0391515940
0.2699392438 0.6550570726 0.0391515940
0.2703407407 0.6494883299 0.0388594195
0.2726060450 0.6485407948 0.0388594195
0.2748683393 0.6475852132 0.0388594195
0.2751950920 0.6420194507 0.0385672450
0.2774346173 0.6410548687 0.0385672450
0.2796707451 0.6400824785 0.0385672450
0.2819031775 0.6391024590 0.0385672450
0.2841324806 0.6381144524 0.0385672450
0.2863579690 0.6371188760 0.0385672450
0.2885803282 0.6361153126 0.0385672450
0.2907991409 0.6351040602 0.0385672450
0.2930141091 0.6340852380 0.0385672450
0.2952258289 0.6330584884 0.0385672450
0.2974336147 0.6320241690 0.0385672450
0.2975310087 0.6264571548 0.0382750668
0.2997160554 0.6254146695 0.0382750668
0.3018971384 0.6243647337 0.0382750668
0.3040748835 0.6233070493 0.0382750668
0.3062485754 0.6222419739 0.0382750668
0.3084188700 0.6211690903 0.0382750668
0.3105854094 0.6200886965 0.0382750668
0.3127478361 0.6190008521 0.0382750668
0.3149067760 0.6179053187 0.0382750668
0.3170615435 0.6168023944 0.0382750668
0.3192127943 0.6156918406 0.0382750668
0.3213601410 0.6145737767 0.0382750668
0.3235032558 0.6134483814 0.0382750668
0.3277374506 0.6168544888 0.0385672450
0.3298887908 0.6157066822 0.0385672450
0.3320361376 0.6145513058 0.0385672450
0.3341791034 0.6133886576 0.0385672450
0.3363183141 0.6122183204 0.0385672450
0.3384531140 0.6110407710 0.0385672450
0.3405841291 0.6098555326 0.0385672450
0.3402948678 0.6042951941 0.0382750668
0.3424019814 0.6031037569 0.0382750668
0.3445052505 0.6019048095 0.0382750668
0.3441423178 0.5963565111 0.0379828922
0.3462220132 0.5951514840 0.0379828922
0.3458055258 0.5896143913 0.0376907177
0.3478613794 0.5884038210 0.0376907177
0.3499132991 0.5871858597 0.0376907177
0.3494235575 0.5816624165 0.0373985395
0.3514519334 0.5804390907 0.0373985395
0.3534759879 0.5792086720 0.0373985395
0.3554954827 0.5779713988 0.0373985395
0.3549140692 0.5724641681 0.0371063650
0.3569099903 0.5712218881 0.0371063650
0.3589018881 0.5699725151 0.0371063650
0.3608893752 0.5687161684 0.0371063650
0.3628722131 0.5674530864 0.0371063650
0.3648508787 0.5661828518 0.0371063650
0.3668248355 0.5649059415 0.0371063650
0.3687946200 0.5636219978 0.0371063650
0.3707598746 0.5623311400 0.0371063650
0.3727203608 0.5610336661 0.0371063650
0.3746765852 0.5597290993 0.0371063650
0.3766279221 0.5584179759 0.0371063650
0.3785749972 0.5570998192 0.0371063650
0.3833050132 0.5599153638 0.0373985395
0.3852569759 0.5585740805 0.0373985395
0.3872045279 0.5572258234 0.0373985395
0.3863162994 0.5517598391 0.0371063650
0.3882400692 0.5504078865 0.0371063650
0.3901591003 0.5490492582 0.0371063650
0.3920730948 0.5476841331 0.0371063650
0.3939825892 0.5463120937 0.0371063650
0.3958870173 0.5449336767 0.0371063650
0.3977868855 0.5435483456 0.0371063650
0.3996818960 0.5421564579 0.0371063650
0.4015717804 0.5407580733 0.0371063650
0.4034570456 0.5393529534 0.0371063650
0.4053371251 0.5379414558 0.0371063650
0.4072125256 0.5365232229 0.0371063650
0.4090829492 0.5350984335 0.0371063650
0.4109481573 0.5336673260 0.0371063650
0.4158368409 0.5361974239 0.0373985395
0.4177058041 0.5347427726 0.0373985395
0.4195699692 0.5332813859 0.0373985395
0.4214290082 0.5318134427 0.0373985395
0.4261795878 0.5344132781 0.0376907177
0.4282284677 0.5327728987 0.0376907177
0.4299000204 0.5314249992 0.0376907177
0.4286296070 0.5260272026 0.0373985395
0.4304630160 0.5245279074 0.0373985395
0.4322914481 0.5230220556 0.0373985395
0.4309508502 0.5176491141 0.0371063650
0.4327552617 0.5161415339 0.0371063650
0.4345543981 0.5146277547 0.0371063650
0.4363479614 0.5131078362 0.0371063650
0.4381365180 0.5115814805 0.0371063650
0.4399194121 0.5100491047 0.0371063650
0.4416972697 0.5085102916 0.0371063650
0.4434697032 0.5069653392 0.0371063650
0.4485065639 0.5091854930 0.0373985395
0.4502813220 0.5076166987 0.0373985395
0.4520503283 0.5060419440 0.0373985395
0.4571234882 0.5081974864 0.0376907177
0.4588947594 0.5065986514 0.0376907177
0.4606601596 0.5049938560 0.0376907177
0.4624202251 0.5033826828 0.0376907177
0.4641743898 0.5017656088 0.0376907177
0.4659231305 0.5001421571 0.0376907177
0.4676662087 0.4985126555 0.0376907177
0.4660036564 0.4932226241 0.0373985395
0.4677225947 0.4915928543 0.0373985395
0.4694355726 0.4899573624 0.0373985395
0.4711430967 0.4883156419 0.0373985395
0.4728448391 0.4866679907 0.0373985395
0.4745406210 0.4850146174 0.0373985395
0.4762308300 0.4833551049 0.0373985395
0.4779150188 0.4816899598 0.0373985395
0.4795936048 0.4800187051 0.0373985395
0.4812663496 0.4783415794 0.0373985395
0.4829330146 0.4766588807 0.0373985395
0.4845940173 0.4749701321 0.0373985395
0.4862488806 0.4732758403 0.0373985395
0.4878980517 0.4715755284 0.0373985395
0.4895412624 0.4698694646 0.0373985395
0.4910149276 0.4683292806 0.0373985395
0.4926465750 0.4666126072 0.0373985395
0.4978817105 0.4683378935 0.0376907177
0.4995135665 0.4665970206 0.0376907177
0.5011391044 0.4648506939 0.0376907177
0.5027588010 0.4630984366 0.0376907177
0.5080291629 0.4647379816 0.0379828922
0.5096483827 0.4629616737 0.0379828922
0.5112614036 0.4611797631 0.0379828922
0.5128679872 0.4593924582 0.0379828922
0.5144685507 0.4575993121 0.0379828922
0.5160625577 0.4558008611 0.0379828922
0.5176505446 0.4539965689 0.0379828922
0.5154932737 0.4488799870 0.0376907177
0.5170568824 0.4470779896 0.0376907177
0.5186144114 0.4452702999 0.0376907177
0.5201653838 0.4434574544 0.0376907177
0.5217102766 0.4416389167 0.0376907177
0.5270448923 0.4430560470 0.0379828922
0.5285881162 0.4412137866 0.0379828922
0.5301250815 0.4393658638 0.0379828922
0.5354852676 0.4407139719 0.0382750668
0.5370204449 0.4388419688 0.0382750668
0.5385491252 0.4369646609 0.0382750668
0.5399191380 0.4352706373 0.0382750668
0.5414353609 0.4333832264 0.0382750668
0.5429446697 0.4314907789 0.0382750668
0.5445975065 0.4294028282 0.0382750668
0.5459437966 0.4276898801 0.0382750668
0.5474334359 0.4257814586 0.0382750668
0.5489164591 0.4238678813 0.0382750668
0.5503925681 0.4219493866 0.0382750668
0.5558109879 0.4230785668 0.0385672450
0.5572842956 0.4211360216 0.0385672450
0.5627210736 0.4222134948 0.0388594195
0.5641915202 0.4202465713 0.0388594195
0.5656548738 0.4182747602 0.0388594195
0.5671115518 0.4162976146 0.0388594195
0.5685611367 0.4143156409 0.0388594195
0.5700039864 0.4123283625 0.0388594195
0.5714399219 0.4103360474 0.0388594195
0.5728686452 0.4083390236 0.0388594195
0.5742905736 0.4063367546 0.0388594195
0.5757053494 0.4043297768 0.0388594195
0.5771133304 0.4023176134 0.0388594195
0.5825974941 0.4031713903 0.0391515940
0.5840011239 0.4011354446 0.0391515940
0.5853978992 0.3990943432 0.0391515940
0.5867872834 0.3970486820 0.0391515940
0.5881697536 0.3949978650 0.0391515940
0.5936778188 0.3957414031 0.0394437760
0.5949181318 0.3938744068 0.0394437760
0.6005782485 0.3943574131 0.0397359505
0.6018141508 0.3924687505 0.0397359505
0.6031805873 0.3903655112 0.0397359505
0.6087194085 0.3909858465 0.0400281250
0.6100805998 0.3888585269 0.0400281250
0.6114341021 0.3867267668 0.0400281250
0.6127803922 0.3845899701 0.0400281250
0.6141191721 0.3824485242 0.0400281250
0.6154503226 0.3803026974 0.0400281250
0.6167741418 0.3781519234 0.0400281250
0.6138448715 0.3733717799 0.0397359505
0.6151445508 0.3712266684 0.0397359505
0.6164366603 0.3690770268 0.0397359505
0.6177211404 0.3669231832 0.0397359505
0.6189982295 0.3647645712 0.0397359505
0.6159770489 0.3600512445 0.0394437760
0.6129306555 0.3553631306 0.0391515940
0.6012426019 0.3456595838 0.0382750668
0.5894942880 0.3360423446 0.0373985395
0.5776864886 0.3265111148 0.0365220122
0.5744881630 0.3220174909 0.0362298377
0.5756087899 0.3200100660 0.0362298377
0.5462610126 0.3008836806 0.0341846012
0.5691085458 0.3111242354 0.0356454849
0.5876654387 0.3187939525 0.0368141904
0.6019055247 0.3239387572 0.0376907177
0.6118032932 0.3266036510 0.0382750668
0.6261205673 0.3315720260 0.0391515940
0.6360778213 0.3340913057 0.0397359505
0.6459426880 0.3367704451 0.0403203033
0.6559491158 0.3391616940 0.0409046523
0.6704054475 0.3437957764 0.0417811796
0.6804683208 0.3460401297 0.0423655324
0.6861136556 0.3459402919 0.0426577106
0.6873168945 0.3435434103 0.0426577106
0.6840547323 0.3388953507 0.0423655324
0.6852335930 0.3365053535 0.0423655324
0.6819310784 0.3318961263 0.0420733579
0.6830855608 0.3295135796 0.0420733579
0.6797432899 0.3249431849 0.0417811796
0.6763777137 0.3203997910 0.0414890051
0.6774920225 0.3180367351 0.0414890051
0.6740871668 0.3135330081 0.0411968306
0.6751775742 0.3111779690 0.0411968306
0.6717339158 0.3067139387 0.0409046523
0.6682675481 0.3022774160 0.0406124778
0.6693187356 0.2999427617 0.0406124778
0.6658141017 0.2955467701 0.0403203033
0.6622871757 0.2911785543 0.0400281250
0.6587377787 0.2868389487 0.0397359505
0.6551663280 0.2825273573 0.0394437760
0.6515728235 0.2782441974 0.0391515940
0.6479573846 0.2739899158 0.0388594195
0.6489098668 0.2717263401 0.0388594195
0.6452580094 0.2675134540 0.0385672450
0.6461879015 0.2652593255 0.0385672450
0.6516271830 0.2651438117 0.0388594195
0.6525487900 0.2628674507 0.0388594195
0.6534622908 0.2605882585 0.0388594195
0.6543680429 0.2583055198 0.0388594195
0.6506302953 0.2541684210 0.0385672450
0.6515134573 0.2518959343 0.0385672450
0.6477405429 0.2478012145 0.0382750668
0.6486014724 0.2455388755 0.0382750668
0.6447938085 0.2414868623 0.0379828922
0.6409658194 0.2374644727 0.0376907177
0.6371175647 0.2334720641 0.0373985395
0.6379286647 0.2312465459 0.0373985395
0.6340465546 0.2272974700 0.0371063650
0.6301448345 0.2233780026 0.0368141904
0.6309208274 0.2211769074 0.0368141904
0.6269858479 0.2173014879 0.0365220122
0.6230316758 0.2134559453 0.0362298377
0.6190582514 0.2096409947 0.0359376632
0.6150659323 0.2058560848 0.0356454849
0.6110547185 0.2021016181 0.0353533067
0.6070248485 0.1983779967 0.0350611322
0.6029765606 0.1946846694 0.0347689539
0.6036524177 0.1925788969 0.0347689539
0.5995730162 0.1889304966 0.0344767794
0.6002289057 0.1868363470 0.0344767794
0.5960548520 0.1834413707 0.0341846012
0.5919281840 0.1798680127 0.0338924266
0.5925524831 0.1778005660 0.0338924266
0.5883958936 0.1742724627 0.0336002521
0.5890005827 0.1722176820 0.0336002521
0.5848145485 0.1687353551 0.0333080739
0.5853999257 0.1666931212 0.0333080739
0.5811847448 0.1632568240 0.0330158994
0.5817511082 0.1612270176 0.0330158994
0.5775071979 0.1578372717 0.0327237248
0.5780546665 0.1558203101 0.0327237248
0.5737825632 0.1524770856 0.0324315466
0.5743113160 0.1504731625 0.0324315466
0.5700114965 0.1471763849 0.0321393721
0.5705217123 0.1451859325 0.0321393721
0.5661945939 0.1419360787 0.0318471976
0.5666865706 0.1399590075 0.0318471976
0.5623324513 0.1367563307 0.0315550156
0.5628064275 0.1347924918 0.0315550156
0.5632734895 0.1328272671 0.0315550156
0.5588820577 0.1296872944 0.0312628411
0.5593312979 0.1277358085 0.0312628411
0.5597738028 0.1257824898 0.0312628411
0.5553028584 0.1228996739 0.0309706647
0.5557706356 0.1207665578 0.0309706647
0.5512762666 0.1179300547 0.0306784902
0.5516845584 0.1160051748 0.0306784902
0.5520861149 0.1140786335 0.0306784902
0.5475987792 0.1111123189 0.0303863138
0.5479832888 0.1092000529 0.0303863138
0.5483611822 0.1072864681 0.0303863138
0.5438395143 0.1043843850 0.0300941374
0.5442005396 0.1024852991 0.0300941374
0.5396553874 0.0996319428 0.0298019629
0.5399999022 0.0977474675 0.0298019629
0.5354316831 0.0949427933 0.0295097865
0.5357598066 0.0930733532 0.0295097865
0.5360814929 0.0912025422 0.0295097865
0.5363965631 0.0893308669 0.0295097865
0.5367051363 0.0874578357 0.0295097865
0.5370369554 0.0853963867 0.0295097865
0.5422268510 0.0845249742 0.0298019629
0.5326644182 0.0810338482 0.0292176101
0.5378738642 0.0799558535 0.0295097865
0.5332171321 0.0773132369 0.0292176101
0.4764473438 -0.2497836053 0.0407953039
0.5018615723 -0.2656892836 0.0432430208
0.5271703005 -0.2817752659 0.0456907414
0.5480076075 -0.2956364453 0.0477305055
0.5731107593 -0.3120661676 0.0501782261
0.6154972911 -0.3384144008 0.0542577505
0.6143122315 -0.3405608237 0.0542577505
0.6174505353 -0.3451683521 0.0546657033
0.6162419319 -0.3473215401 0.0546657033
0.6193393469 -0.3519659638 0.0550736636
0.6224117875 -0.3566361964 0.0554816127
0.6211630702 -0.3588066697 0.0554816127
0.6241939664 -0.3635131717 0.0558895655
0.6230489016 -0.3654723465 0.0558895655
0.6217693686 -0.3676449656 0.0558895655
0.6247434616 -0.3723968267 0.0562975183
0.6234397292 -0.3745753467 0.0562975183
0.6263715029 -0.3793626726 0.0567054711
0.6250434518 -0.3815468252 0.0567054711
0.6279324889 -0.3863692582 0.0571134239
0.6307954788 -0.3912165165 0.0575213768
0.6336321831 -0.3960884213 0.0579293296
0.6364425421 -0.4009848833 0.0583372824
0.6392263174 -0.4059057236 0.0587452352
0.6461614966 -0.4135671556 0.0595611408
0.6613877416 -0.4267436564 0.0611929558
0.6723707318 -0.4372859597 0.0624168143
0.8473050594 -0.5612673163 0.0799587965
0.8536005020 -0.5697991252 0.0807747021
0.8474861979 -0.5699720383 0.0803667456
0.7920570970 -0.5362984538 0.0750633553
0.8147830963 -0.5560514331 0.0775110796
3.7253210545 -2.5853836536 0.3679736257
3.7162737846 -2.5983715057 0.3679736257
3.7193930149 -2.6199522018 0.3691975176
3.7061643600 -2.6300303936 0.3687895536
3.7019352913 -2.6445624828 0.3691975176
3.6926813126 -2.6574685574 0.3691975176
3.6833827496 -2.6703419685 0.3691975176
3.6740388870 -2.6831831932 0.3691975176
3.6606400013 -2.6930336952 0.3687895536
3.6512172222 -2.7057955265 0.3687895536
3.6417498589 -2.7185242176 0.3687895536
3.6322383881 -2.7312195301 0.3687895536
3.6226825714 -2.7438817024 0.3687895536
3.6091239452 -2.7534830570 0.3683815897
3.5994906425 -2.7660646439 0.3683815897
3.5898132324 -2.7786123753 0.3683815897
3.5840187073 -2.7941946983 0.3687895536
3.5742433071 -2.8066883087 0.3687895536
3.5644245148 -2.8191478252 0.3687895536
3.5584561825 -2.8346824646 0.3691975176
3.5485394001 -2.8470866680 0.3691975176
3.5385799408 -2.8594558239 0.3691975176
3.5247156620 -2.8686399460 0.3687895536
3.5146806240 -2.8809261322 0.3687895536
3.5007636547 -2.8899998665 0.3683815897
3.4906542301 -2.9022023678 0.3683815897
1.1314766407 -0.9690820575 0.1187143326
1.1092793941 -0.9566822648 0.1166745648
1.0759323835 -0.9342940450 0.1134109423
1.1063121557 -0.9676979780 0.1170825213
1.0842920542 -0.9550142884 0.1150427535
1.0772362947 -0.9554724693 0.1146348044
1.0664865971 -0.9525592327 0.1138188988
1.0520783663 -0.9462358356 0.1125950366
1.0414078236 -0.9431833029 0.1117791310
1.0234339237 -0.9333229065 0.1101473272
1.0055416822 -0.9233486652 0.1085155010
0.9840866327 -0.9098631144 0.1064757407
0.9663715363 -0.8996499181 0.1048439294
0.9451185465 -0.8859009743 0.1028041691
0.9239734411 -0.8720148206 0.1007644013
0.9101318121 -0.8648891449 0.0995405465
0.8999365568 -0.8611385822 0.0987246335
0.8826323748 -0.8503803611 0.0970928222
0.8796585798 -0.8534561396 0.0970928222
0.8553808928 -0.8355309367 0.0946451053
0.8418492079 -0.8279792666 0.0934212431
0.8110392094 -0.8024447560 0.0901576206
0.7766137123 -0.7734631300 0.0864860415
0.7424008250 -0.7442514896 0.0828144699
0.7084017396 -0.7148107886 0.0791428909
0.6815697551 -0.6922837496 0.0762872174
0.6618310809 -0.6767441630 0.0742474496
0.6456605792 -0.6646704078 0.0726156384
0.6295825839 -0.6524922252 0.0709838271
0.6135975718 -0.6402099729 0.0693520159
0.5977061987 -0.6278243661 0.0677202046
0.5819088817 -0.6153357625 0.0660883933
0.5662062764 -0.6027446389 0.0644565746
0.5539737940 -0.5937180519 0.0632327199
0.5451735854 -0.5882917643 0.0624168143
0.5364180207 -0.5828113556 0.0616009086
0.5310439467 -0.5809786916 0.0611929558
0.5256892443 -0.5791155696 0.0607850030
0.5137329698 -0.5697726607 0.0595611408
0.5018485188 -0.5603535175 0.0583372824
0.4933205843 -0.5546062589 0.0575213768
0.4782963395 -0.5412878990 0.0558895655
0.4764039814 -0.5429541469 0.0558895655
0.4746958911 -0.5444481373 0.0558895655
0.4663263261 -0.5385174751 0.0550736636
0.4869826138 -0.5667660236 0.0579293296
0.4946209192 -0.5799064040 0.0591531880
3.0120422840 -3.6002054214 0.3810281456
2.9994571209 -3.6106972694 0.3810281456
2.9868350029 -3.6211454868 0.3810281456
2.9899413586 -3.6508443356 0.3830678761
2.9771792889 -3.6612589359 0.3830678761
2.9675068855 -3.6755101681 0.3834758401
2.9577715397 -3.6897380352 0.3838838041
2.9479727745 -3.7039430141 0.3842917681
2.9381103516 -3.7181239128 0.3846997023
2.9281854630 -3.7322816849 0.3851076663
2.9181971550 -3.7464151382 0.3855156302
2.9081463814 -3.7605242729 0.3859235942
2.8980317116 -3.7746086121 0.3863314986
2.8878548145 -3.7886686325 0.3867394626
2.8776147366 -3.8027033806 0.3871474266
2.8643231392 -3.8127250671 0.3871474266
2.8480224609 -3.8187017441 0.3867394626
2.8317143917 -3.8246114254 0.3863314986
2.8036134243 -3.8143789768 0.3842917681
2.8166756630 -3.8604037762 0.3879633546
2.8148572445 -3.8863692284 0.3895951509
2.8012742996 -3.8961710930 0.3895951509
2.7876570225 -3.9059257507 0.3895951509
2.7581071854 -3.8902523518 0.3871474266
2.7244677544 -3.8713061810 0.3842917681
2.7194848061 -3.8930585384 0.3855156302
2.7030441761 -3.8984289169 0.3851076663
2.6894197464 -3.9078404903 0.3851076663
2.6785686016 -3.9213228226 0.3855156302
2.6676559448 -3.9347770214 0.3859235942
2.2717740536 -3.4262473583 0.3332976401
2.2652676105 -3.4424893856 0.3341135383
2.2641141415 -3.4670798779 0.3357453346
2.2519979477 -3.4749619961 0.3357453346
2.2425444126 -3.4869968891 0.3361532986
2.2330343723 -3.4990079403 0.3365612626
2.2261281013 -3.5152082443 0.3373771608
2.2164900303 -3.5271806717 0.3377850950
2.2094268799 -3.5433604717 0.3386010230
2.1996610165 -3.5552921295 0.3390089571
2.1924407482 -3.5714495182 0.3398248851
2.1825473309 -3.5833404064 0.3402328491
2.1751692295 -3.5994737148 0.3410487175
2.1651484966 -3.6113219261 0.3414566815
2.1550712585 -3.6231441498 0.3418646455
2.1449379921 -3.6349394321 0.3422725797
2.1360216141 -3.6459631920 0.3426805437
2.1282787323 -3.6620206833 0.3434964716
2.1179659367 -3.6737477779 0.3439043760
2.1100659370 -3.6897768974 0.3447203040
2.0996267796 -3.7014575005 0.3451282680
2.0915694237 -3.7174563408 0.3459441662
2.0834259987 -3.7334442139 0.3467600942
2.0727887154 -3.7450573444 0.3471680582
2.0644879341 -3.7610127926 0.3479839265
2.0561013222 -3.7769560814 0.3487998545
2.0476281643 -3.7928862572 0.3496157527
2.0367224216 -3.8044071198 0.3500237167
2.0280921459 -3.8203022480 0.3508395851
2.0170602798 -3.8317711353 0.3512475491
2.0082733631 -3.8476300240 0.3520634770
1.9993999004 -3.8634738922 0.3528793752
1.9904404879 -3.8793029785 0.3536953032
1.9813946486 -3.8951163292 0.3545111716
1.9722627401 -3.9109137058 0.3553270996
1.9630447626 -3.9266943932 0.3561429977
1.9537404776 -3.9424586296 0.3569589257
1.9443498850 -3.9582054615 0.3577747941
1.9348732233 -3.9739348888 0.3585907221
1.9267027378 -3.9889736176 0.3594066203
1.9170595407 -4.0046701431 0.3602225482
1.9087578058 -4.0251851082 0.3614463806
1.8982179165 -4.0411810875 0.3622623086
1.8918100595 -4.0606832504 0.3634861410
1.8817900419 -4.0763158798 0.3643020391
1.8716845512 -4.0919284821 0.3651179671
1.8614925146 -4.1075205803 0.3659338951
1.8532502651 -4.1276388168 0.3671577275
1.8448902369 -4.1477494240 0.3683815897
1.8364118338 -4.1678519249 0.3696054220
1.8298038244 -4.1925153732 0.3712372482
1.8151577711 -4.1988773346 0.3712372482
1.8044021130 -4.2143549919 0.3720531762
2.0558869839 -4.9465870857 0.4352858961
2.0423905849 -4.9629535675 0.4361017942
2.0269300938 -4.9746694565 0.4365097582
2.0151317120 -4.9955844879 0.4377335906
2.0032114983 -5.0164780617 0.4389574826
1.9911704063 -5.0373487473 0.4401813447
1.9790072441 -5.0581965446 0.4414051771
1.9667233229 -5.0790200233 0.4426290393
1.9560967684 -5.1044745445 0.4442608356
1.9435535669 -5.1252560616 0.4454847276
1.9308894873 -5.1460113525 0.4467085600
1.9181034565 -5.1667404175 0.4479324222
1.9069103003 -5.1921224594 0.4495642185
1.8938663006 -5.2128038406 0.4507881105
1.8823809624 -5.2381486893 0.4524199367
1.8724064827 -5.2681727409 0.4544596672
1.8573012352 -5.2840828896 0.4552755952
1.8388452530 -5.2905340195 0.4552755952
1.8229067326 -5.3013167381 0.4556835592
1.7788614035 -5.2899770737 0.4536437690
1.7619526386 -5.3008847237 0.4540517330
1.7558434010 -5.3448901176 0.4573153555
1.6819466352 -5.1802992821 0.4426290393
1.6714419127 -5.2098722458 0.4446687996
1.6637524366 -5.2489380836 0.4475244582
1.6469048262 -5.2594709396 0.4479324222
1.6344065666 -5.2842369080 0.4495642185
1.6188538074 -5.2994446754 0.4503801465
1.6046493053 -5.3193798065 0.4516040087
1.5903244019 -5.3392810822 0.4528278410
1.5772820711 -5.3639287949 0.4544596672
1.5627019405 -5.3837637901 0.4556835592
1.5480030775 -5.4035615921 0.4569073915
1.5331848860 -5.4233222008 0.4581312537
1.5182468891 -5.4430451393 0.4593550861
1.5031907558 -5.4627299309 0.4605789781
1.4880146980 -5.4823756218 0.4618028402
1.4727205038 -5.5019812584 0.4630266726
1.4573076963 -5.5215473175 0.4642505646
1.4417753220 -5.5410723686 0.4654744267
1.4273585081 -5.5653843880 0.4671062231
1.4115720987 -5.5848307610 0.4683300853
1.3968677521 -5.6090707779 0.4699618816
1.3820114136 -5.6332764626 0.4715937078
1.3670022488 -5.6574463844 0.4732255042
1.3518418074 -5.6815800667 0.4748573303
1.3353968859 -5.7008237839 0.4760811925
1.3177194595 -5.7151637077 0.4768970907
1.3019579649 -5.7289967537 0.4777130187
1.2830351591 -5.7383704185 0.4781209528
1.2672595978 -5.7622861862 0.4797527492
1.2566113472 -5.8156108856 0.4838322997
1.2363179922 -5.8250536919 0.4842402637
1.1964164972 -6.0418038368 0.5009663105
1.1649063826 -5.9921250343 0.4964788556
1.1458421946 -6.0059461594 0.4972947538
1.1230460405 -6.0001111031 0.4964788556
1.1029896736 -6.0088968277 0.4968867898
1.0802520514 -6.0028996468 0.4960708916
1.0610129833 -6.0164504051 0.4968867898
1.0408494473 -6.0250291824 0.4972947538
1.0289068222 -6.0826826096 0.5017822385
1.1054767370 -6.9841241837 0.5756217241
1.0803331137 -6.9830150604 0.5752137899
1.0611379147 -7.0212392807 0.5780694485
1.0409642458 -7.0544834137 0.5805171728
1.0198658705 -7.0827393532 0.5825569630
0.9985818863 -7.1109333038 0.5845966935
0.9737544060 -7.1143755913 0.5845966935
0.9349009991 -7.2050209045 0.5915319324
0.9103656411 -7.2131843567 0.5919398069
0.8369410038 -6.8205819130 0.5593036413
0.8166423440 -6.8531541824 0.5617513061
0.7979593873 -6.8804388046 0.5637910962
0.7742902637 -6.9082159996 0.5658308864
0.7533749342 -6.9406042099 0.5682785511
0.7329418659 -6.9678463936 0.5703183413
0.7098949552 -6.9952774048 0.5723581314
0.6883646846 -7.0274729729 0.5748058558
0.6686156988 -7.0544075966 0.5768455863
0.6462318301 -7.0815138817 0.5788853765
0.6240995526 -7.1135144234 0.5813331008
0.6013363600 -7.1404795647 0.5833728313
0.5787904859 -7.1723403931 0.5858205557
0.5547719002 -7.2042269707 0.5882682800
0.5296238065 -7.2410964966 0.5911239386
0.5076678991 -7.2726416588 0.5935716629
0.4871113896 -7.3090085983 0.5964273214
0.4634573758 -7.3405060768 0.5988750458
0.4381247461 -7.3470540047 0.5992829800
0.4133022130 -7.3634657860 0.6005068421
0.3448667228 -8.2000226974 0.6686350107
0.3162405491 -8.2011766434 0.6686350107
0.2869263887 -8.1823091507 0.6670032144
0.2577466965 -8.1633367538 0.6653714180
0.2288405895 -8.1492424011 0.6641474962
0.1999168992 -8.1300640106 0.6625157595
0.1711287946 -8.1107826233 0.6608839035
0.1423944533 -8.0864181519 0.6588441730
0.1138981953 -8.0669336319 0.6572123170
0.0854912028 -8.0423669815 0.6551725864
0.0572892912 -8.0226840973 0.6535407901
0.0292247664 -8.0029020309 0.6519089341
0.0013001065 -7.9830217361 0.6502771378
-0.0264864620 -7.9630441666 0.6486453414
-0.0541324951 -7.9429707527 0.6470134854
-0.0816935077 -7.9277844429 0.6457896829
-0.1090780199 -7.9075198174 0.6441578269
-0.1363210082 -7.8871607780 0.6425260305
-0.1634242535 -7.8667082787 0.6408942342
-0.1903853267 -7.8461627960 0.6392624378
-0.2173467129 -7.8305058479 0.6380385160
-0.2438838780 -7.8047957420 0.6359987855
-0.2720084190 -7.8287978172 0.6380385160
-0.3001106083 -7.8477187157 0.6396703720
-0.3279246092 -7.8565812111 0.6404862404
-0.3539747894 -7.8255200386 0.6380385160
-0.3835037649 -7.8690319061 0.6417101026
-0.4188714325 -8.0169363022 0.6539486647
-0.4491001070 -8.0552282333 0.6572123170
-0.4831779301 -8.1531000137 0.6653714180
-0.5157358050 -8.2160177231 0.6706748009
-0.5563958287 -8.3931655884 0.6853610873
-0.5831094980 -8.3963479996 0.6857690215
-0.6168043017 -8.4539003372 0.6906645298
-0.6493762732 -8.4914445877 0.6939281225
-0.6822167635 -8.5288629532 0.6971917748
-0.7948359847 -9.1295356750 0.7469620109
-0.8280562758 -9.1415939331 0.7481858730
-0.8670096397 -9.2130651474 0.7543051839
-0.9040350318 -9.2595767975 0.7583847046
-0.9419000149 -9.3108997345 0.7628721595
-0.9822226763 -9.3818950653 0.7689915299
-1.1584103107 -10.3602914810 0.8501741290
-1.1997295618 -10.4007368088 0.8538457155
-1.2301179171 -10.3470039368 0.8497661948
-1.2589308023 -10.2832937241 0.8448706865
-0.9339393973 -7.4261918068 0.6094818115
-0.9579284787 -7.4080615044 0.6082580090
-0.9857609868 -7.4194908142 0.6094818115
-1.5594066381 -10.8465442657 0.8938251138
-1.6081920862 -10.9149808884 0.8999443650
-1.5552648306 -10.3081865311 0.8501741290
-1.1218456030 -7.2741060257 0.5992829800
-1.1550348997 -7.3193640709 0.6033625603
-1.1726008654 -7.2660965919 0.5992829800
-1.1955133677 -7.2472105026 0.5980591774
-1.2316181660 -7.3068675995 0.6033625603
-1.2545688152 -7.2877922058 0.6021386385
-1.2661416531 -7.2048492432 0.5956113935
-1.8380628824 -10.2362194061 0.8481343389
-1.8746839762 -10.2346420288 0.8485422730
-1.9287486076 -10.3259992599 0.8567013741
-1.3722208738 -7.2158384323 0.5980591774
-1.3964493275 -7.2061128616 0.5976511836
-1.4215945005 -7.2011942863 0.5976511836
-1.4457373619 -7.1913032532 0.5972432494
-1.4668190479 -7.1666874886 0.5956113935
-2.2353494167 -10.7174692154 0.8930091858
-2.2768955231 -10.7290983200 0.8946410418
-1.5080599785 -6.9950752258 0.5825569630
-1.5324686766 -6.9897680283 0.5825569630
-1.5568578243 -6.9843764305 0.5825569630
-1.5745985508 -6.9497432709 0.5801091790
-1.5988487005 -6.9442048073 0.5801091790
-1.6264948845 -6.9531359673 0.5813331008
-2.7471976280 -11.1991233826 0.9407396913
-2.7790355682 -11.1604547501 0.9382920265
-2.8155286312 -11.1410245895 0.9374760985
-1.7481913567 -6.8258433342 0.5735819340
-3.0591609478 -11.7576265335 0.9913258553
-3.0362935066 -11.5215024948 0.9721521139
-1.8120415211 -6.7885427475 0.5719501376
-1.8331160545 -6.7725577354 0.5711342692
-1.8554226160 -6.7613129616 0.5707262754
-0.5424128175 -1.9644047022 0.1635891646
-0.5668950677 -2.0248382092 0.1688925475
-0.5753322840 -2.0276377201 0.1693005115
-0.5768488646 -2.0064740181 0.1676687002
-0.5880675912 -2.0187907219 0.1688925475
-0.5965336561 -2.0215017796 0.1693005115
-0.6050260067 -2.0241777897 0.1697084606
-0.6120879650 -2.0220534801 0.1697084606
-0.6194949746 -2.0197966099 0.1697084606
-0.6272459030 -2.0174028873 0.1697084606
-0.6324248910 -2.0105621815 0.1693005115
-0.6394391060 -2.0083425045 0.1693005115
-0.6449049711 -2.0013587475 0.1688925475
-0.6518869996 -1.9990954399 0.1688925475
-0.6572875977 -1.9920796156 0.1684846133
-0.6619536877 -1.9852814674 0.1680766493
-0.6688797474 -1.9829586744 0.1680766493
-0.6774190068 -1.9853240252 0.1684846133
-0.6876211762 -1.9923601151 0.1693005115
-0.6962258816 -1.9946483374 0.1697084606
-0.7048550844 -1.9969009161 0.1701164246
-0.7135086060 -1.9991171360 0.1705243587
-0.7204823494 -1.9966143370 0.1705243587
-0.7291675806 -1.9987643957 0.1709323227
-0.7361400127 -1.9962069988 0.1709323227
-0.7483610511 -2.0076200962 0.1721561700
-0.7642085552 -2.0282900333 0.1741959453
-0.7462931275 -1.9604730606 0.1684846133
-0.8942192793 -2.2290177345 0.1933697313
-0.9114052653 -2.2489540577 0.1954095066
-0.9117692113 -2.2057285309 0.1921458840
-0.9329754114 -2.2346923351 0.1950015426
-0.9505018592 -2.2543597221 0.1970413178
-0.9505161047 -2.2327053547 0.1954095066
-0.9523687959 -2.2156522274 0.1941856444
-0.9561083913 -2.2031807899 0.1933697313
-0.9577627182 -2.1861500740 0.1921458840
-0.9613356590 -2.1736879349 0.1913299859
-0.9648335576 -2.1612274647 0.1905140728
-0.9641402960 -2.1396920681 0.1888822615
-0.9633084536 -2.1181879044 0.1872504354
-0.9644282460 -2.1012401581 0.1860265881
-0.9633359313 -2.0797936916 0.1843947768
-0.9642269611 -2.0628898144 0.1831708997
-0.9671483040 -2.0505075455 0.1823550016
-0.9699950814 -2.0381302834 0.1815391034
-0.9727674723 -2.0257577896 0.1807231903
-0.9776489735 -2.0178706646 0.1803152412
-0.9824873805 -2.0099740028 0.1799072921
-0.9894974232 -2.0065321922 0.1799072921
-0.9764204025 -1.9629597664 0.1762357056
-0.9765284061 -1.9461941719 0.1750118583
-0.9878143668 -1.9348964691 0.1746038944
-0.9830995798 -1.9093134403 0.1725641340
-0.9966821671 -1.9191199541 0.1737879813
-1.0010519028 -1.9112206697 0.1733800471
-2.3350257874 -4.3682298660 0.4022416770
-2.3715841770 -4.3995089531 0.4059132636
-2.3893115520 -4.3955793381 0.4063212276
-2.4046406746 -4.3872122765 0.4063212276
-2.4199399948 -4.3787918091 0.4063212276
-2.4327800274 -4.3659672737 0.4059132636
-2.4480049610 -4.3574490547 0.4059132636
-2.4607393742 -4.3445439339 0.4055052996
-2.4758901596 -4.3359274864 0.4055052996
-2.4885189533 -4.3229427338 0.4050973356
-2.5035941601 -4.3142294884 0.4050973356
-2.5186381340 -4.3054642677 0.4050973356
-2.5336513519 -4.2966461182 0.4050973356
-2.5486342907 -4.2877759933 0.4050973356
-2.5635857582 -4.2788534164 0.4050973356
-2.5785064697 -4.2698788643 0.4050973356
-2.5907998085 -4.2565984726 0.4046894312
-2.6056420803 -4.2475290298 0.4046894312
-2.6204531193 -4.2384076118 0.4046894312
-2.6325917244 -4.2250080109 0.4042814672
-2.8597049713 -4.5531787872 0.4369177222
-3.5171520710 -5.4697623253 0.5291150808
-3.5389368534 -5.4616322517 0.5295230150
-3.5552523136 -5.4450750351 0.5291150808
-3.5769796371 -5.4367928505 0.5295230150
-3.5931785107 -5.4201226234 0.5291150808
-3.6120767593 -5.4075465202 0.5291150808
-3.6309304237 -5.3949055672 0.5291150808
-3.6469402313 -5.3780760765 0.5287071466
-3.6656908989 -5.3653130531 0.5287071466
-3.6843965054 -5.3524851799 0.5287071466
-3.7030582428 -5.3395915031 0.5287071466
-3.7216739655 -5.3266329765 0.5287071466
-3.7373733521 -5.3095364571 0.5282992125
-3.7587702274 -5.3005208969 0.5287071466
-3.7772490978 -5.2873682976 0.5287071466
-3.8277404308 -5.3186159134 0.5331946015
-3.8784949780 -5.3495755196 0.5376820564
-3.8971452713 -5.3360042572 0.5376820564
-3.9127910137 -5.3183569908 0.5372741818
-3.9402427673 -5.3166704178 0.5384979844
-3.9617624283 -5.3068742752 0.5389059782
-3.9832606316 -5.2969932556 0.5393139124
-4.0017266273 -5.2830567360 0.5393139124
-4.0201435089 -5.2690558434 0.5393139124
-4.0385107994 -5.2549910545 0.5393139124
-4.0598835945 -5.2448000908 0.5397218466
-4.0781664848 -5.2305965424 0.5397218466
-4.0964002609 -5.2163290977 0.5397218466
-4.1145834923 -5.2019982338 0.5397218466
-4.1327166557 -5.1876044273 0.5397218466
-4.1507992744 -5.1731467247 0.5397218466
-4.1688327789 -5.1586256027 0.5397218466
-4.1868138313 -5.1440424919 0.5397218466
-4.2047443390 -5.1293964386 0.5397218466
-4.2257990837 -5.1185288429 0.5401298404
-4.2436399460 -5.1037468910 0.5401298404
-4.2614307404 -5.0889019966 0.5401298404
-4.2791681290 -5.0739960670 0.5401298404
-4.3000826836 -5.0628237724 0.5405377746
-4.3218531609 -5.0508122444 0.5409457088
-4.3435926437 -5.0387101173 0.5413536429
-4.3644242287 -5.0272784233 0.5417616367
-4.3852305412 -5.0157608986 0.5421695709
-4.4027118683 -5.0004234314 0.5421695709
-4.4234485626 -4.9887504578 0.5425775051
-4.4408349991 -4.9732799530 0.5425775051
-4.4564380646 -4.9593033791 0.5425775051
-4.4703750610 -4.9400253296 0.5421695709
-4.4842319489 -4.9207105637 0.5417616367
-4.4912633896 -4.8940215111 0.5405377746
-4.5252451897 -4.8965992928 0.5425775051
-4.5559029579 -4.8953533173 0.5442093611
-4.5866060257 -4.8939538002 0.5458411574
-4.6139307022 -4.8887782097 0.5470650196
-4.6481471062 -4.8906898499 0.5491048098
-4.6617417336 -4.8708376884 0.5486968160
-4.6787166595 -4.8545346260 0.5486968160
-4.6956334114 -4.8381733894 0.5486968160
-4.7124929428 -4.8217535019 0.5486968160
-4.7292952538 -4.8052749634 0.5486968160
-4.7495503426 -4.7922739983 0.5491048098
-4.7662506104 -4.7756648064 0.5491048098
-4.7864270210 -4.7625102997 0.5495127439
-4.8030214310 -4.7457737923 0.5495127439
-4.8231177330 -4.7324671745 0.5499206781
-4.8431797028 -4.7190775871 0.5503286719
-4.8524556160 -4.6952171326 0.5495127439
-4.8760075569 -4.6851501465 0.5503286719
-17.4669437408 -16.5309886932 1.9655177593
-17.5245399475 -16.4699172974 1.9655177593
-17.4543876648 -16.2896652222 1.9512393475
-9.1868238449 -8.5175399780 1.0223302841
-9.3940534592 -8.6457214355 1.0419120789
-9.3520689011 -8.5440387726 1.0337530375
-9.3042974472 -8.4410600662 1.0251859426
-9.4225988388 -8.4885435104 1.0349768400
-9.4075880051 -8.4157485962 1.0300813913
-9.4406337738 -8.3861665726 1.0304894447
-9.3128271103 -8.2147769928 1.0133553743
-5.1607885361 -4.4918847084 0.5568559170
-5.1311626434 -4.4347753525 0.5519604683
-5.1693172455 -4.4362916946 0.5544081926
-5.1619977951 -4.3988456726 0.5519604683
-5.1811275482 -4.3840165138 0.5523684025
-5.2002167702 -4.3691067696 0.5527763367
-5.2498993874 -4.3796296120 0.5564479232
-5.2958769798 -4.3866844177 0.5597115755
-5.3073058128 -4.3650097847 0.5593036413
-5.3302345276 -4.3527550697 0.5601195097
-5.3492693901 -4.3372583389 0.5605274439
-5.3721456528 -4.3248019218 0.5613433719
-5.3911046982 -4.3091320992 0.5617513061
-5.4100189209 -4.2933826447 0.5621592999
-5.4328060150 -4.2806339264 0.5629751682
-5.4516425133 -4.2647113800 0.5633831024
-5.4704346657 -4.2487082481 0.5637910962
-5.4931297302 -4.2356672287 0.5646070242
-5.5157999992 -4.2225189209 0.5654228926
-5.5384454727 -4.2092647552 0.5662388206
-5.5809669495 -4.2108945847 0.5690944791
-7.6668729782 -5.7403082848 0.7808220983
-5.8863134384 -4.3767924309 0.5972432494
-5.8654508591 -4.3296103477 0.5935716629
-5.8563971519 -4.2914552689 0.5911239386
-5.8390841484 -4.2475595474 0.5878603458
-5.8336648941 -4.2125787735 0.5858205557
-5.7632322311 -4.1312856674 0.5772535205
-5.6841788292 -4.0447645187 0.5678706169
-5.6901178360 -4.0191550255 0.5670546889
-5.6836991310 -3.9849805832 0.5650149584
-5.6852979660 -3.9565851688 0.5637910962
-5.6826643944 -3.9254000187 0.5621592999
-5.7045559883 -3.9111692905 0.5629751682
-5.7264180183 -3.8968338966 0.5637910962
-5.7489275932 -3.8813893795 0.5646070242
-5.7713994980 -3.8658330441 0.5654228926
-5.7931628227 -3.8511753082 0.5662388206
-5.8148946762 -3.8364105225 0.5670546889
-5.8324217796 -3.8188161850 0.5674626827
-5.8540778160 -3.8038580418 0.5682785511
-5.8757004738 -3.7887954712 0.5690944791
-5.8972887993 -3.7736277580 0.5699103475
-5.9188442230 -3.7583544254 0.5707262754
-5.9403634071 -3.7429776192 0.5715422034
-5.9618477821 -3.7274966240 0.5723581314
-5.9832959175 -3.7119109631 0.5731739998
-6.0047078133 -3.6962211132 0.5739899278
-6.0260844231 -3.6804254055 0.5748058558
-6.0474219322 -3.6645267010 0.5756217241
-6.0729951859 -3.6510882378 0.5768455863
-6.0942664146 -3.6349666119 0.5776615143
-6.1197896004 -3.6212751865 0.5788853765
-6.1409926414 -3.6049289703 0.5797013044
-6.1621551514 -3.5884799957 0.5805171728
-6.1919112206 -3.5769062042 0.5821489692
-5.5275826454 -3.1425783634 0.5172844529
-5.5081195831 -3.1061549187 0.5144287944
-5.4928207397 -3.0723359585 0.5119810700
-5.4511938095 -3.0241796970 0.5070856214
-5.4660849571 -3.0075318813 0.5074935555
-5.4634203911 -2.9812841415 0.5062696934
-5.4474854469 -2.9479863644 0.5038219690
-5.4269909859 -2.9124855995 0.5009663105
-5.4019145966 -2.8748264313 0.4977027178
-5.3810510635 -2.8397002220 0.4948470592
-5.3555908203 -2.8024482727 0.4915834367
-5.3343625069 -2.7676982880 0.4887277186
-5.3085231781 -2.7308568954 0.4854640961
-5.2780508995 -2.6919698715 0.4817925096
-5.2518215179 -2.6555736065 0.4785288870
-5.2432312965 -2.6283094883 0.4768970907
-5.2300500870 -2.5989227295 0.4748573303
-5.2122554779 -2.5674641132 0.4724096060
-5.2301459312 -2.5536189079 0.4732255042
-5.2480030060 -2.5396802425 0.4740414321
-5.2613315582 -2.5234971046 0.4744493961
-5.2791137695 -2.5093853474 0.4752652943
-5.2972970009 -2.4942576885 0.4760811925
-5.3154397011 -2.4790289402 0.4768970907
-5.3331117630 -2.4646325111 0.4777130187
-5.3507480621 -2.4501426220 0.4785288870
-5.3683481216 -2.4355597496 0.4793448150
-5.3904590607 -2.4229211807 0.4805686772
-5.4125461578 -2.4101591110 0.4817925096
-5.4346103668 -2.3972725868 0.4830164015
-5.4566497803 -2.3842611313 0.4842402637
-5.4832401276 -2.3731002808 0.4858720601
-5.5098190308 -2.3617811203 0.4875038862
-5.5317959785 -2.3483633995 0.4887277186
-5.5675334930 -2.3406026363 0.4911754727
-5.5802721977 -2.3230655193 0.4915834367
-5.6252188683 -2.3187327385 0.4948470592
-5.6378941536 -2.3009603024 0.4952549636
-4.5661077499 -1.8275921345 0.3993860185
-4.5770945549 -1.8134729862 0.3997939825
-4.5741138458 -1.7938566208 0.3989780545
-4.5803480148 -1.7778780460 0.3989780545
-4.5865259171 -1.7618790865 0.3989780545
-4.5926480293 -1.7458585501 0.3989780545
-4.5987138748 -1.7298169136 0.3989780545
-4.6000518799 -1.7120209932 0.3985700905
-4.6059999466 -1.6959524155 0.3985700905
-4.6212606430 -1.6832650900 0.3993860185
-4.6364884377 -1.6704916954 0.4002019167
-5.2780828476 -1.8593393564 0.4548676312
-5.3975229263 -1.8801367283 0.4646584988
-5.4794650078 -1.8871775866 0.4711857736
-5.5901656151 -1.9023047686 0.4801607132
-5.6916003227 -1.9134764671 0.4883197546
-5.7975850105 -1.9265090227 0.4968867898
-5.9037284851 -1.9388246536 0.5054538250
-5.9910631180 -1.9442840815 0.5123890042
-6.0832529068 -1.9506764412 0.5197321773
-6.1470475197 -1.9474422932 0.5246276259
-6.2108931541 -1.9437865019 0.5295230150
-6.2795495987 -1.9411762953 0.5348263979
-6.3434958458 -1.9366573095 0.5397218466
-6.4122586250 -1.9331514835 0.5450252295
-6.4810733795 -1.9291890860 0.5503286719
-6.5499377251 -1.9247696400 0.5556320548
-6.6188497543 -1.9198926687 0.5609354377
-6.6878066063 -1.9145560265 0.5662388206
-6.7520093918 -1.9074119329 0.5711342692
-6.8114414215 -1.8985085487 0.5756217241
-6.8756990433 -1.8905307055 0.5805171728
-6.9303622246 -1.8795258999 0.5845966935
-6.9850320816 -1.8681604862 0.5886762142
-7.0397062302 -1.8564380407 0.5927557349
-7.0895586014 -1.8431061506 0.5964273214
-7.1442317963 -1.8306821585 0.6005068421
-7.1989040375 -1.8178988695 0.6045864224
-7.2535743713 -1.8047541380 0.6086659431
-7.3082385063 -1.7912515402 0.6127454638
-7.3580522537 -1.7762233019 0.6164170504
-7.4078488350 -1.7608691454 0.6200886369
-7.4576277733 -1.7451887131 0.6237602234
-7.5073876381 -1.7291802168 0.6274318099
-7.5571246147 -1.7128473520 0.6311033368
-7.6068396568 -1.6961882114 0.6347749233
-7.6565294266 -1.6792029142 0.6384465098
-7.7061929703 -1.6618911028 0.6421180964
-7.7509527206 -1.6432207823 0.6453816891
-7.8005547523 -1.6252733469 0.6490532756
-7.8455224037 -1.6046348810 0.6523169279
-7.8904438019 -1.5836864710 0.6555805206
-7.9301528931 -1.5628561974 0.6584361792
-7.9747061729 -1.5427111387 0.6616998315
-8.0143184662 -1.5213478804 0.6645554900
-8.0538778305 -1.4997246265 0.6674111485
-8.0933847427 -1.4778459072 0.6702668667
-8.1279296875 -1.4548346996 0.6727145314
-8.1673212051 -1.4324579239 0.6755701900
-8.2066545486 -1.4098238945 0.6784258485
-8.2459297180 -1.3869303465 0.6812815070
-8.2851457596 -1.3637820482 0.6841372848
-8.3242988586 -1.3403767347 0.6869929433
-8.3633890152 -1.3167145252 0.6898486018
-8.4024143219 -1.2927957773 0.6927042603
-8.4413757324 -1.2686183453 0.6955599189
-8.4802694321 -1.2441867590 0.6984155774
-8.5190954208 -1.2194992304 0.7012712955
-8.5578517914 -1.1945555210 0.7041269541
-8.5965375900 -1.1693561077 0.7069826126
-8.6351509094 -1.1438988447 0.7098382711
-8.6687479019 -1.1175544262 0.7122859955
-8.7072114944 -1.0916061401 0.7151416540
-8.7406520844 -1.0648034811 0.7175894380
-8.7789592743 -1.0383627415 0.7204450965
-8.8122377396 -1.0111002922 0.7228927612
-8.8454322815 -0.9836202860 0.7253404856
-8.8785419464 -0.9559210539 0.7277882099
-8.9117279053 -0.9264455438 0.7302359343
-8.9398565292 -0.8962478638 0.7322756648
-8.9726943970 -0.8678976297 0.7347234488
-9.0004796982 -0.8388670683 0.7367631793
-9.0331344604 -0.8100976348 0.7392108440
-9.0607337952 -0.7806856632 0.7412506938
-9.0882368088 -0.7510908246 0.7432904243
-9.1206111908 -0.7217035294 0.7457380891
