0.2212003917 0.6797432303 0.0117803747
0.2235715985 0.6789669991 0.0117803747
0.2259403914 0.6781824231 0.0117803747
0.2283061147 0.6773896813 0.0117803747
0.2290442735 0.6718607545 0.0116931116
0.2313882262 0.6710571051 0.0116931116
0.2337290496 0.6702454090 0.0116931116
0.2360673398 0.6694254279 0.0116931116
0.2384024411 0.6685974002 0.0116931116
0.2390275896 0.6630624533 0.0116058495
0.2413407713 0.6622239947 0.0116058495
0.2436507046 0.6613776088 0.0116058495
0.2459579855 0.6605229974 0.0116058495
0.2482619435 0.6596605182 0.0116058495
0.2505632341 0.6587898135 0.0116058495
0.2528614104 0.6579111218 0.0116058495
0.2551562190 0.6570245624 0.0116058495
0.2574482262 0.6561298370 0.0116058495
0.2597368062 0.6552272439 0.0116058495
0.2620225251 0.6543165445 0.0116058495
0.2643050551 0.6533979177 0.0116058495
0.2665840387 0.6524714231 0.0116058495
0.2688600719 0.6515368223 0.0116058495
0.2711325288 0.6505944133 0.0116058495
0.2734020054 0.6496440172 0.0116058495
0.2756681442 0.6486856341 0.0116058495
0.2759476006 0.6431303620 0.0115185874
0.2781909704 0.6421631575 0.0115185874
0.2784156501 0.6366131306 0.0114313262
0.2806362808 0.6356373429 0.0114313262
0.2808065414 0.6300928593 0.0113440640
0.2830041051 0.6291089058 0.0113440640
0.2851984799 0.6281171441 0.0113440640
0.2873890996 0.6271178722 0.0113440640
0.2916869223 0.6306427717 0.0114313262
0.2938866317 0.6296206713 0.0114313262
0.2960824370 0.6285910606 0.0114313262
0.2982749343 0.6275536418 0.0114313262
0.3004634976 0.6265087724 0.0114313262
0.3026487231 0.6254560351 0.0114313262
0.3048302531 0.6243957281 0.0114313262
0.3070077598 0.6233279705 0.0114313262
0.3091818392 0.6222524643 0.0114313262
0.3113518357 0.6211695075 0.0114313262
0.3135183454 0.6200788617 0.0114313262
0.3156810403 0.6189806461 0.0114313262
0.3178395927 0.6178750396 0.0114313262
0.3199945390 0.6167617440 0.0114313262
0.3221453130 0.6156410575 0.0114313262
0.3242924809 0.6145127416 0.0114313262
0.3240755796 0.6089698672 0.0113440640
0.3261991143 0.6078350544 0.0113440640
0.3283189833 0.6066926122 0.0113440640
0.3304345608 0.6055429578 0.0113440640
0.3325464129 0.6043857932 0.0113440640
0.3346542120 0.6032212377 0.0113440640
0.3367576301 0.6020495296 0.0113440640
0.3388572335 0.6008702517 0.0113440640
0.3409524262 0.5996838808 0.0113440640
0.3480384648 0.6071515679 0.0115185874
0.3551807106 0.6145769358 0.0116931116
0.3649062514 0.6262732744 0.0119548980
0.3670902252 0.6249955893 0.0119548980
0.3743846118 0.6323015094 0.0121294223
0.3482914865 0.5838388801 0.0111695398
0.3399774730 0.5655093789 0.0108204922
0.3367443979 0.5557823777 0.0106459679
0.3412997723 0.5588628054 0.0107332300
0.3432483375 0.5576681495 0.0107332300
0.3451929986 0.5564665198 0.0107332300
0.3471334279 0.5552580953 0.0107332300
0.3490693569 0.5540431142 0.0107332300
0.3510012925 0.5528212190 0.0107332300
0.3556346297 0.5557963252 0.0108204922
0.3575726748 0.5545514822 0.0108204922
0.3595063388 0.5532998443 0.0108204922
0.3614353836 0.5520416498 0.0108204922
0.3633602560 0.5507766008 0.0108204922
0.3652804494 0.5495049953 0.0108204922
0.3673877120 0.5480983257 0.0108204922
0.3692032695 0.5468770266 0.0108204922
0.3709194660 0.5457144976 0.0108204922
0.3731071949 0.5442210436 0.0108204922
0.3750047088 0.5429152846 0.0108204922
0.3768973947 0.5416030884 0.0108204922
0.3787857592 0.5402840972 0.0108204922
0.3834698796 0.5431010127 0.0109077543
0.3852687776 0.5418263674 0.0109077543
0.3871575892 0.5404783487 0.0109077543
0.3890419900 0.5391235352 0.0109077543
0.3879711330 0.5337264538 0.0108204922
0.3898316622 0.5323690772 0.0108204922
0.3916877210 0.5310049653 0.0108204922
0.3935387135 0.5296345949 0.0108204922
0.3983917236 0.5322517157 0.0109077543
0.4002473056 0.5308577418 0.0109077543
0.4020977616 0.5294575095 0.0109077543
0.4039435387 0.5280506611 0.0109077543
0.4027221799 0.5226857662 0.0108204922
0.4045443535 0.5212767124 0.0108204922
0.4032720625 0.5159310102 0.0107332300
0.4050703943 0.5145203471 0.0107332300
0.4068640471 0.5131031871 0.0107332300
0.4086524844 0.5116799474 0.0107332300
0.4104361832 0.5102502704 0.0107332300
0.4122148752 0.5088143945 0.0107332300
0.4139883220 0.5073724985 0.0107332300
0.4157569408 0.5059242845 0.0107332300
0.4175202847 0.5044700503 0.0107332300
0.4192787707 0.5030094385 0.0107332300
0.4210321307 0.5015427470 0.0107332300
0.4227801561 0.5000701547 0.0107332300
0.4277746081 0.5023887157 0.0108204922
0.4295255244 0.5008925796 0.0108204922
0.4312714636 0.4993900955 0.0108204922
0.4330121279 0.4978815615 0.0108204922
0.4314431846 0.4926154613 0.0107332300
0.4298430085 0.4873661995 0.0106459679
0.4315415025 0.4858629107 0.0106459679
0.4298917055 0.4806365669 0.0105587048
0.4315668941 0.4791329503 0.0105587048
0.4332366288 0.4776237011 0.0105587048
0.4382832646 0.4797901809 0.0106459679
0.4399552345 0.4782574773 0.0106459679
0.4416220784 0.4767187536 0.0106459679
0.4432835579 0.4751742184 0.0106459679
0.4483723938 0.4772582054 0.0107332300
0.4500356913 0.4756900966 0.0107332300
0.4516932666 0.4741164148 0.0107332300
0.4533455968 0.4725367427 0.0107332300
0.4549923837 0.4709512889 0.0107332300
0.4566333890 0.4693603516 0.0107332300
0.4617774487 0.4713248909 0.0108204922
0.4634197354 0.4697102308 0.0108204922
0.4685897231 0.4716264904 0.0109077543
0.4702332616 0.4699878395 0.0109077543
0.4718708098 0.4683436751 0.0109077543
0.4735028446 0.4666936100 0.0109077543
0.4751288891 0.4650380611 0.0109077543
0.4767493904 0.4633766413 0.0109077543
0.4747576118 0.4582474828 0.0108204922
0.4763541818 0.4565876126 0.0108204922
0.4779451489 0.4549219608 0.0108204922
0.4795300663 0.4532509744 0.0108204922
0.4811093807 0.4515742362 0.0108204922
0.4826828241 0.4498920143 0.0108204922
0.4842501581 0.4482045472 0.0108204922
0.4895017743 0.4498842955 0.0109077543
0.4910690486 0.4481730163 0.0109077543
0.4926305711 0.4464560449 0.0109077543
0.4941860735 0.4447336197 0.0109077543
0.4994720221 0.4463271201 0.0109950164
0.5010270476 0.4445808232 0.0109950164
0.5025757551 0.4428293407 0.0109950164
0.5003472567 0.4377904534 0.0109077543
0.5018724799 0.4360411465 0.0109077543
0.5033913851 0.4342867732 0.0109077543
0.5049043298 0.4325268865 0.0109077543
0.5064108968 0.4307619631 0.0109077543
0.5079115629 0.4289915264 0.0109077543
0.5094060302 0.4272158742 0.0109077543
0.5147443414 0.4286238849 0.0109950164
0.5162374377 0.4268243909 0.0109950164
0.5177240968 0.4250199497 0.0109950164
0.5192046165 0.4232100546 0.0109950164
0.5206788182 0.4213950038 0.0109950164
0.5221464634 0.4195750952 0.0109950164
0.5236079693 0.4177497923 0.0109950164
0.5250628591 0.4159196913 0.0109950164
0.5304494500 0.4171641171 0.0110822776
0.5319024324 0.4153098762 0.0110822776
0.5373080373 0.4165031314 0.0111695398
0.5387586951 0.4146249592 0.0111695398
0.5402026176 0.4127419591 0.0111695398
0.5416401625 0.4108536541 0.0111695398
0.5430710316 0.4089604020 0.0111695398
0.5444951653 0.4070623815 0.0111695398
0.5459128618 0.4051591754 0.0111695398
0.5473236442 0.4032512605 0.0111695398
0.5487280488 0.4013381600 0.0111695398
0.5501257181 0.3994202018 0.0111695398
0.5555798411 0.4004099369 0.0112568019
0.5569741726 0.3984680474 0.0112568019
0.5624451637 0.3994054496 0.0113440640
0.5679296851 0.4003091753 0.0114313262
0.5734272599 0.4011794627 0.0115185874
0.5748240352 0.3991755545 0.0115185874
0.5762139559 0.3971665204 0.0115185874
0.5775967240 0.3951528966 0.0115185874
0.5789726377 0.3931341767 0.0115185874
0.5803414583 0.3911106884 0.0115185874
0.5858655572 0.3918514252 0.0116058495
0.5914020538 0.3925580382 0.0116931116
0.5969504118 0.3932310641 0.0117803747
0.5983194709 0.3911447823 0.0117803747
0.5996132493 0.3891585171 0.0117803747
0.6009004712 0.3871679604 0.0117803747
0.6022481918 0.3850682676 0.0117803747
0.6078166962 0.3856312037 0.0118676368
0.6091591716 0.3835070729 0.0118676368
0.6104940772 0.3813785315 0.0118676368
0.6160773635 0.3818683326 0.0119548980
0.6174064875 0.3797156811 0.0119548980
0.6187282205 0.3775580823 0.0119548980
0.6200424433 0.3753958941 0.0119548980
0.6170570850 0.3706658781 0.0118676368
0.6140463948 0.3659609854 0.0117803747
0.6110102534 0.3612819612 0.0116931116
0.6122677326 0.3591468036 0.0116931116
0.6178450584 0.3595106900 0.0117803747
0.6234320998 0.3598402739 0.0118676368
0.6290290952 0.3601349294 0.0119548980
0.6302822232 0.3579371870 0.0119548980
0.6271660924 0.3532920480 0.0118676368
0.6240252852 0.3486730754 0.0117803747
0.6208596230 0.3440806270 0.0116931116
0.6176698208 0.3395142853 0.0116058495
0.6144556403 0.3349747360 0.0115185874
0.6112174392 0.3304614723 0.0114313262
0.6079552770 0.3259749413 0.0113440640
0.6046691537 0.3215155303 0.0112568019
0.5880745649 0.3101228178 0.0109077543
0.5935898423 0.3103728592 0.0109950164
0.6302248836 0.3266109824 0.0116931116
0.6536231041 0.3357764482 0.0121294223
0.6681719422 0.3402668238 0.0123912077
0.6693556905 0.3379322886 0.0123912077
0.6705310941 0.3355939388 0.0123912077
0.6716985106 0.3332511485 0.0123912077
0.6683663726 0.3287088871 0.0123039465
0.6695096493 0.3263740540 0.0123039465
0.6661382914 0.3218708932 0.0122166844
0.6672576666 0.3195438683 0.0122166844
0.6638475060 0.3150801063 0.0121294223
0.6649433970 0.3127608001 0.0121294223
0.6614946127 0.3083370924 0.0120421601
0.6625669003 0.3060260415 0.0120421601
0.6636310220 0.3037115932 0.0120421601
0.6601290703 0.2993398011 0.0119548980
0.6566047668 0.2949962318 0.0118676368
0.6576303840 0.2927026451 0.0118676368
0.6540688276 0.2883997560 0.0117803747
0.6504850388 0.2841255963 0.0116931116
0.6468796730 0.2798796892 0.0116058495
0.6478527784 0.2776198387 0.0116058495
0.6441632509 0.2735278010 0.0115185874
0.6450666189 0.2713904977 0.0115185874
0.6460101008 0.2691369951 0.0115185874
0.6469456553 0.2668802440 0.0115185874
0.6478732228 0.2646205425 0.0115185874
0.6487930417 0.2623572946 0.0115185874
0.6543507576 0.2619372010 0.0116058495
0.6552611589 0.2596513629 0.0116058495
0.6608222127 0.2591758966 0.0116931116
0.6617228389 0.2568678260 0.0116931116
0.6626154780 0.2545562983 0.0116931116
0.6588224769 0.2504773140 0.0116058495
0.6596928835 0.2481759340 0.0116058495
0.6558655500 0.2441395819 0.0115185874
0.6520180702 0.2401333153 0.0114313262
0.6481507421 0.2361565828 0.0113440640
0.6442635655 0.2322101146 0.0112568019
0.6403568983 0.2282933444 0.0111695398
0.6364307404 0.2244067341 0.0110822776
0.6277604103 0.2189172655 0.0109077543
0.6237902045 0.2151076496 0.0108204922
0.6198010445 0.2113287449 0.0107332300
0.6110514998 0.2059962004 0.0105587048
0.6070196629 0.2022946328 0.0104714436
0.6077220440 0.2001746893 0.0104714436
0.6036590934 0.1965179592 0.0103841815
0.5995779634 0.1928923279 0.0102969194
0.6002476215 0.1907981038 0.0102969194
0.6009100080 0.1887015849 0.0102969194
0.6015650034 0.1866030395 0.0102969194
0.5974286199 0.1830511540 0.0102096573
0.5980639458 0.1809647977 0.0102096573
0.5986919999 0.1788759381 0.0102096573
0.5945137739 0.1753843129 0.0101223951
0.5951222777 0.1733081639 0.0101223951
0.5957236290 0.1712296456 0.0101223951
0.5915042758 0.1677990258 0.0100351339
0.5920864344 0.1657331437 0.0100351339
0.5926613212 0.1636652648 0.0100351339
0.5884016752 0.1602958590 0.0099478718
0.5889576674 0.1582408696 0.0099478718
0.5846701264 0.1549181640 0.0098606097
0.5755260587 0.1503778696 0.0096860854
0.5712025166 0.1471356302 0.0095988242
0.5668633580 0.1439256668 0.0095115621
0.5625088215 0.1407475471 0.0094242990
0.5629966259 0.1387833208 0.0094242990
0.5634776950 0.1368171275 0.0094242990
0.5639518499 0.1348492950 0.0094242990
0.5644190907 0.1328800768 0.0094242990
0.5648794770 0.1309089810 0.0094242990
0.5653330088 0.1289365441 0.0094242990
0.5706610084 0.1280417442 0.0095115621
0.5710604191 0.1262484044 0.0095115621
0.5763859749 0.1253012419 0.0095988242
0.5768198371 0.1232886761 0.0095988242
0.5772467256 0.1212743297 0.0095988242
0.5776665211 0.1192585155 0.0095988242
0.5780792832 0.1172415242 0.0095988242
0.5784850121 0.1152228341 0.0095988242
0.5788836479 0.1132030040 0.0095988242
0.5743628144 0.1102541760 0.0095115621
0.5747442245 0.1082485020 0.0095115621
0.5701996684 0.1053487509 0.0094242990
0.5705639124 0.1033576354 0.0094242990
0.5659962893 0.1005068719 0.0093370369
0.5663436651 0.0985304490 0.0093370369
0.5666841865 0.0965528414 0.0093370369
0.5620840788 0.0937672779 0.0092497747
0.5624079704 0.0918045714 0.0092497747
0.5627250075 0.0898410007 0.0092497747
0.5580933094 0.0871207267 0.0091625126
0.5583940744 0.0851719901 0.0091625126
0.5586879253 0.0832224712 0.0091625126
0.5540255904 0.0805681422 0.0090752514
0.5543034077 0.0786338970 0.0090752514
0.5545745492 0.0766984224 0.0090752514
0.5548388958 0.0747620314 0.0090752514
0.5550964475 0.0728249848 0.0090752514
0.5603082776 0.0715038404 0.0091625126
0.5605544448 0.0695477203 0.0091625126
0.5607938170 0.0675904825 0.0091625126
0.5560591817 0.0650673732 0.0090752514
0.5562828779 0.0631261244 0.0090752514
0.5515288115 0.0606534816 0.0089879893
0.5517371893 0.0587280728 0.0089879893
0.5469642282 0.0563060194 0.0089007271
0.5471574664 0.0543963201 0.0089007271
0.5373880863 0.0515643768 0.0087262029
0.5524855256 0.0512114875 0.0089879893
0.5426991582 0.0484270193 0.0088134650
0.5428649187 0.0465322584 0.0088134650
0.5381914377 0.0423655920 0.0087262029
0.5434616804 0.0389482379 0.0088134650
0.5028406978 -0.2675499320 0.0064750100
0.5194352865 -0.2789256871 0.0067193503
0.5447052121 -0.2952620089 0.0070858602
0.5698671937 -0.3117780387 0.0074523706
0.6167073846 -0.3407295644 0.0081243049
0.6155142784 -0.3428801894 0.0081243049
0.6229941845 -0.3499899805 0.0082464758
0.6217686534 -0.3521624804 0.0082464758
0.6205356121 -0.3543307185 0.0082464758
0.6192950010 -0.3564946651 0.0082464758
0.6180468202 -0.3586542010 0.0082464758
0.6167911291 -0.3608094156 0.0082464758
0.6155278683 -0.3629602194 0.0082464758
0.6142571568 -0.3651066124 0.0082464758
0.6131071448 -0.3670345545 0.0082464758
0.6160183549 -0.3718952239 0.0083075603
0.6190336347 -0.3765661120 0.0083686458
0.6219580770 -0.3813696206 0.0084297303
0.6290899515 -0.3888578117 0.0085519003
0.6361770034 -0.3964003921 0.0086740702
0.6432189345 -0.4039971530 0.0087962402
0.6628316045 -0.4197596610 0.0091016656
0.6571664214 -0.4193521738 0.0090405801
0.6473258138 -0.4161770940 0.0089184102
0.6625764370 -0.4294254780 0.0091627501
0.8009180427 -0.5284558535 0.0112396404
0.8322510123 -0.5535796285 0.0117283203
0.8303135633 -0.5564813614 0.0117283203
0.8655200005 -0.5847590566 0.0122780856
3.7751436234 -2.5919065475 0.0554651842
3.7701816559 -2.6079177856 0.0555262677
3.7528584003 -2.6153349876 0.0554040968
3.7682371140 -2.6456851959 0.0557706095
3.7589788437 -2.6588227749 0.0557706095
3.7374699116 -2.6632091999 0.0555873476
3.7200348377 -2.6703989506 0.0554651842
3.6944994926 -2.6716299057 0.0552208424
3.6891889572 -2.6874585152 0.0552819297
3.6838123798 -2.7032823563 0.0553430095
3.6783707142 -2.7191014290 0.0554040968
3.6728634834 -2.7349157333 0.0554651842
3.6592984200 -2.7447147369 0.0554040968
3.6496951580 -2.7574715614 0.0554040968
3.6360726357 -2.7671618462 0.0553430095
3.6263911724 -2.7798373699 0.0553430095
3.6166656017 -2.7924790382 0.0553430095
3.6068961620 -2.8050863743 0.0553430095
3.5931506157 -2.8145720959 0.0552819297
3.5833039284 -2.8270974159 0.0552819297
3.5695030689 -2.8364732265 0.0552208424
3.5673792362 -2.8551731110 0.0553430095
3.5612800121 -2.8707504272 0.0554040968
3.5589933395 -2.8894760609 0.0555262677
3.5527517796 -2.9050507545 0.0555873476
3.5271670818 -2.9047031403 0.0553430095
3.5180244446 -2.9157698154 0.0553430095
1.2192012072 -1.0276021957 0.0189974345
1.2308092117 -1.0448449850 0.0192417745
1.1743730307 -1.0108400583 0.0184476711
1.1256406307 -0.9754778147 0.0177146494
1.1184737682 -0.9761000276 0.0176535659
1.0663963556 -0.9369142652 0.0168594606
1.0444606543 -0.9239949584 0.0165540352
1.0151880980 -0.9042536020 0.0161264408
1.0120254755 -0.9077917933 0.0161264408
0.9977604747 -0.9012205601 0.0159431845
0.9872386456 -0.8979399800 0.0158210155
0.9767519832 -0.8945969939 0.0156988446
0.9736233950 -0.8980009556 0.0156988446
0.9376387596 -0.8706376553 0.0151490811
0.9091321230 -0.8498945236 0.0147214849
0.8880328536 -0.8358489275 0.0144160604
0.8706563711 -0.8251219988 0.0141717205
0.8785747290 -0.8385601044 0.0143549750
0.8828205466 -0.8485829234 0.0144771449
0.8655451536 -0.8376871347 0.0142328050
0.8447920084 -0.8231757283 0.0139273806
0.8277034163 -0.8120477796 0.0136830406
0.8107030392 -0.8008106947 0.0134387007
0.7867355347 -0.7823796868 0.0130721899
0.7488450408 -0.7495715618 0.0124613401
0.7146965861 -0.7200760841 0.0119115748
0.6842541695 -0.6939311624 0.0114228958
0.6609594822 -0.6747658849 0.0110563850
0.6447380781 -0.6626542211 0.0108120451
0.6251565814 -0.6468218565 0.0105066197
0.6091339588 -0.6344889402 0.0102622798
0.5932052135 -0.6220521927 0.0100179408
0.5807857513 -0.6131638885 0.0098346854
0.5650335550 -0.6005329490 0.0095903454
0.5527660251 -0.5914751887 0.0094070900
0.5439452529 -0.5860264897 0.0092849201
0.5318057537 -0.5768245459 0.0091016656
0.5230877995 -0.5712557435 0.0089794947
0.5110777617 -0.5619108677 0.0087962402
0.5024639964 -0.5562233329 0.0086740702
0.4905847013 -0.5467368960 0.0084908158
0.4853748083 -0.5446888208 0.0084297303
0.4803746045 -0.5424434543 0.0083686458
0.4784782231 -0.5441169739 0.0083686458
0.4733157158 -0.5419934392 0.0083075603
0.4616799057 -0.5322370529 0.0081243049
0.4630529284 -0.5376584530 0.0081853895
0.4998178482 -0.5851634145 0.0089184102
3.3552172184 -4.0043702126 0.0633451492
3.3571867943 -4.0352911949 0.0636505708
3.3430805206 -4.0469856262 0.0636505708
3.3320999146 -4.0624990463 0.0637116507
3.3242051601 -4.0818657875 0.0638338253
3.3130764961 -4.0973353386 0.0638949126
3.3018796444 -4.1127767563 0.0639559925
3.2906155586 -4.1281900406 0.0640170798
3.2792842388 -4.1435751915 0.0640781671
3.2678854465 -4.1589312553 0.0641392544
3.2564196587 -4.1742582321 0.0642003417
3.2448859215 -4.1895551682 0.0642614216
3.2332856655 -4.2048230171 0.0643225089
3.2246477604 -4.2240381241 0.0644446760
3.2128989697 -4.2392559052 0.0645057634
3.2010838985 -4.2544431686 0.0645668432
3.1892015934 -4.2695999146 0.0646279305
3.1534612179 -4.2525734901 0.0642003417
3.1531534195 -4.3148813248 0.0648111850
3.1439361572 -4.3339614868 0.0649333596
3.1346232891 -4.3530292511 0.0650555268
3.1223125458 -4.3680152893 0.0651166141
2.7302782536 -3.9043169022 0.0577253252
2.7223250866 -3.9220442772 0.0578474924
2.7086179256 -3.9315230846 0.0578474924
2.6948778629 -3.9409539700 0.0578474924
2.6839079857 -3.9544770718 0.0579085797
2.6700880527 -3.9638214111 0.0579085797
2.6590094566 -3.9772772789 0.0579696670
2.6478695869 -3.9907038212 0.0580307543
2.6353192329 -3.9990026951 0.0580307543
2.6254763603 -4.0114483833 0.0580918379
2.6100540161 -4.0215001106 0.0580918379
2.5952970982 -4.0310392380 0.0580918379
2.5831913948 -4.0447406769 0.0581529215
2.5690567493 -4.0537333488 0.0581529215
2.5575478077 -4.0669116974 0.0582140051
2.5433361530 -4.0758142471 0.0582140051
2.5317206383 -4.0889210701 0.0582750924
2.5214762688 -4.1011166573 0.0583361797
2.5123429298 -4.1184353828 0.0584583469
2.4953675270 -4.1228995323 0.0583972596
2.4732537270 -4.1187176704 0.0582140051
2.1118299961 -3.5716753006 0.0502118729
2.1094455719 -3.5962882042 0.0504562147
2.0943703651 -3.5993049145 0.0503951274
2.0867810249 -3.6152601242 0.0505172946
2.0766274929 -3.6268644333 0.0505783819
2.0688817501 -3.6427924633 0.0507005528
2.0610496998 -3.6587102413 0.0508227199
2.0531320572 -3.6746177673 0.0509448946
2.0427103043 -3.6861381531 0.0510059744
2.0346360207 -3.7020151615 0.0511281453
2.0240883827 -3.7134878635 0.0511892326
2.0158569813 -3.7293329239 0.0513113998
2.0075397491 -3.7451660633 0.0514335744
1.9991363287 -3.7609860897 0.0515557416
1.9929729700 -3.7812192440 0.0517389998
1.9843819141 -3.7970204353 0.0518611670
1.9757051468 -3.8128082752 0.0519833378
1.9669419527 -3.8285813332 0.0521055050
1.9580929279 -3.8443398476 0.0522276796
1.9491578341 -3.8600826263 0.0523498468
1.9401365519 -3.8758101463 0.0524720177
1.9310289621 -3.8915214539 0.0525941849
1.9218355417 -3.9072165489 0.0527163595
1.9125556946 -3.9228944778 0.0528385267
1.9031903744 -3.9385552406 0.0529606976
1.8937381506 -3.9541981220 0.0530828647
1.8863388300 -3.9743425846 0.0532661229
1.8745768070 -3.9854292870 0.0533272065
1.8711863756 -4.0146193504 0.0536326319
2.4446666241 -5.2972807884 0.0707975179
2.4344599247 -5.3239769936 0.0710418597
2.4220380783 -5.3461098671 0.0712251142
2.4074482918 -5.3636579514 0.0713472813
2.3907377720 -5.3765993118 0.0714083686
2.3779892921 -5.3986430168 0.0715916231
2.3631200790 -5.4160799980 0.0717137903
2.3521170616 -5.4426603317 0.0719581321
2.3350677490 -5.4554357529 0.0720192194
2.3160099983 -5.4635534286 0.0720192194
2.2891712189 -5.4477477074 0.0717137903
2.2567260265 -5.4233808517 0.0712862015
2.2225778103 -5.3942308426 0.0707975179
2.2338824272 -5.4760518074 0.0717748776
2.2315666676 -5.5255537033 0.0723246410
2.2390649319 -5.6033606529 0.0732409209
2.2259776592 -5.6247062683 0.0734241679
2.2117879391 -5.6464128494 0.0736074299
2.1866557598 -5.6401095390 0.0734241679
1.9914226532 -5.2437815666 0.0680486932
1.9485481977 -5.1851558685 0.0671935007
1.9286985397 -5.1872382164 0.0671324134
2.0987498760 -5.7692642212 0.0745237023
2.0870413780 -5.8000845909 0.0748291314
2.0751440525 -5.8308930397 0.0751345530
2.0614001751 -5.8569712639 0.0753788948
1.7283632755 -5.0200095177 0.0643835962
1.7220729589 -5.0591540337 0.0648111850
1.7044029236 -5.0651345253 0.0648111850
1.6898579597 -5.0805449486 0.0649333596
1.6721135378 -5.0864124298 0.0649333596
1.6543487310 -5.0922183990 0.0649333596
1.6365630627 -5.0979619026 0.0649333596
1.6202647686 -5.1084103584 0.0649944395
1.6039129496 -5.1188077927 0.0650555268
1.5875089169 -5.1291527748 0.0651166141
1.5739656687 -5.1490111351 0.0652998686
1.5603022575 -5.1688370705 0.0654831156
1.5465204716 -5.1886305809 0.0656663775
1.5312120914 -5.2035923004 0.0657885447
1.5172086954 -5.2233138084 0.0659718066
1.5017129183 -5.2381920815 0.0660939738
1.4874874353 -5.2578387260 0.0662772283
1.4758226871 -5.2870831490 0.0665826499
1.4626483917 -5.3114886284 0.0668269917
1.4493223429 -5.3358664513 0.0670713335
1.4358439445 -5.3602151871 0.0673156679
1.4222123623 -5.3845353127 0.0675600097
1.4071741104 -5.4039855003 0.0677432716
1.3932548761 -5.4282402992 0.0679876059
1.3779625893 -5.4476146698 0.0681708604
1.3649610281 -5.4766535759 0.0684762895
1.3505851030 -5.5008111000 0.0687206313
1.3360579014 -5.5249342918 0.0689649656
1.3213779926 -5.5490236282 0.0692093074
1.3054101467 -5.5682082176 0.0693925619
1.2882050276 -5.5824766159 0.0695147365
1.2709152699 -5.5966920853 0.0696369037
1.2600558996 -5.6401371956 0.0701255798
1.2478395700 -5.6786904335 0.0705531761
1.2311640978 -5.6976747513 0.0707364306
1.3840063810 -6.5188112259 0.0809376314
1.4121063948 -6.7683544159 0.0839918777
1.3944733143 -6.8026337624 0.0843583867
1.3746509552 -6.8270678520 0.0846027285
1.3556418419 -6.8563518524 0.0849081501
1.3317008018 -6.8610420227 0.0849081501
1.3114694357 -6.8852972984 0.0851524919
1.2910858393 -6.9094939232 0.0853968337
1.2759325504 -6.9631433487 0.0860076845
1.2575794458 -6.9868021011 0.0862520263
1.2063758373 -6.8384966850 0.0843583867
1.1655472517 -6.7441205978 0.0831366852
1.1469802856 -6.7777295113 0.0835032016
1.1753548384 -7.0974078178 0.0874126330
1.1465940475 -7.0767874718 0.0871072114
1.1070892811 -6.9869136810 0.0859465972
1.0865011215 -7.0154418945 0.0862520263
1.0649821758 -7.0389676094 0.0864963606
1.0447669029 -7.0723209381 0.0868628696
1.0222028494 -7.0907721519 0.0870461315
1.0022910833 -7.1289572716 0.0874737203
0.9747003913 -7.1125969887 0.0872293860
0.9242131710 -6.9226651192 0.0848470628
0.9352690578 -7.1985630989 0.0882067457
0.8989192247 -7.1124920845 0.0871072114
0.8274365664 -6.7334527969 0.0824036673
0.8127553463 -6.8107728958 0.0833199397
0.7998281717 -6.9079394341 0.0844805613
0.7784796357 -6.9355335236 0.0847859830
0.7564116716 -6.9580917358 0.0850303248
0.7347138524 -6.9855523109 0.0853357464
0.7133362889 -7.0179209709 0.0857022554
0.6912562847 -7.0452489853 0.0860076845
0.6694621444 -7.0774850845 0.0863741934
0.6470016837 -7.1046757698 0.0866796151
0.6247908473 -7.1367769241 0.0870461315
0.6023646593 -7.1688084602 0.0874126330
0.5797215700 -7.2007703781 0.0877791494
0.5568634868 -7.2326607704 0.0881456584
0.5337899327 -7.2644791603 0.0885121673
0.5104999542 -7.2962241173 0.0888786763
0.4869958460 -7.3278951645 0.0892451853
0.4626549482 -7.3495101929 0.0894895270
0.4384630620 -7.3760356903 0.0897949561
0.4143671989 -7.4074730873 0.0901614577
0.3731739223 -8.2255325317 0.1001183167
0.3444596231 -8.2267847061 0.1001183167
0.3151758015 -8.2129487991 0.0999350548
0.2858207226 -8.1940126419 0.0996907204
0.2564492226 -8.1699743271 0.0993853062
0.2273840308 -8.1508283615 0.0991409570
0.1983380765 -8.1265811920 0.0988355353
0.1695653647 -8.1072292328 0.0985911936
0.1409291327 -8.0877761841 0.0983468592
0.1124318168 -8.0682220459 0.0981025100
0.0840716884 -8.0485677719 0.0978581756
0.0558511950 -8.0288143158 0.0976138338
0.0277556833 -8.0039615631 0.0973084047
-0.0001701998 -7.9840116501 0.0970640630
-0.0279554110 -7.9639639854 0.0968197286
-0.0556017198 -7.9438199997 0.0965753868
-0.0831066892 -7.9235801697 0.0963310450
-0.1106176302 -7.9132442474 0.0962088779
-0.1377862245 -7.8878154755 0.0959034562
-0.1648858190 -7.8672928810 0.0956591144
-0.2066416442 -7.4061727524 0.0900392905
-0.2336160690 -7.4403853416 0.0904668868
-0.2611887753 -7.4844927788 0.0910166502
-0.2894620895 -7.5384893417 0.0916885883
-0.1071929932 -2.4420781136 0.0293818861
-0.1154689342 -2.4366953373 0.0293208007
-0.1250346601 -2.4562478065 0.0295651387
-0.1355856806 -2.4907379150 0.0299927350
-0.1427793652 -2.4652962685 0.0296873096
-0.1536057591 -2.4997098446 0.0301149059
-0.1623302996 -2.4991583824 0.0301149059
-0.1682353020 -2.4586789608 0.0296262261
-0.1753379554 -2.4381330013 0.0293818861
-0.1819125116 -2.4125828743 0.0290764607
-0.1899283379 -2.4069499969 0.0290153772
-0.1979070306 -2.4012904167 0.0289542899
-0.2058488578 -2.3956048489 0.0288932063
-0.2137530893 -2.3898928165 0.0288321208
-0.2211463004 -2.3791778088 0.0287099499
-0.2289583683 -2.3734161854 0.0286488663
-0.2367328852 -2.3676288128 0.0285877809
-0.2444701344 -2.3618161678 0.0285266973
-0.2521693707 -2.3559782505 0.0284656100
-0.2598311603 -2.3501157761 0.0284045264
-0.2674547732 -2.3442282677 0.0283434410
-0.2750404477 -2.3383164406 0.0282823574
-0.2825884223 -2.3323800564 0.0282212701
-0.2907281220 -2.3313794136 0.0282212701
-0.2982171774 -2.3253929615 0.0281601865
-0.3056676686 -2.3193826675 0.0280991010
-0.3137618601 -2.3183014393 0.0280991010
-0.3211532235 -2.3122415543 0.0280380137
-0.3285058439 -2.3061585426 0.0279769301
-0.3358201981 -2.3000521660 0.0279158447
-0.3430956602 -2.2939231396 0.0278547611
-0.3503323793 -2.2877712250 0.0277936738
-0.3575307131 -2.2815968990 0.0277325921
-0.3654926717 -2.2803349495 0.0277325921
-0.3726304471 -2.2741131783 0.0276715048
-0.3797289729 -2.2678697109 0.0276104212
-0.3867884576 -2.2616043091 0.0275493357
-0.3938091397 -2.2553174496 0.0274882521
-0.4007903636 -2.2490088940 0.0274271648
-0.4077326655 -2.2426793575 0.0273660813
-0.4146353304 -2.2363288403 0.0273049958
-0.4224389195 -2.2348678112 0.0273049958
-0.4292802811 -2.2284727097 0.0272439122
-0.4360818267 -2.2220568657 0.0271828249
-0.4428441823 -2.2156207561 0.0271217413
-0.4495665729 -2.2091646194 0.0270606559
-0.4562493265 -2.2026886940 0.0269995723
-0.4628926218 -2.1961929798 0.0269384850
-0.4705558419 -2.1945638657 0.0269384850
-0.4771366119 -2.1880257130 0.0268774014
-0.4836771786 -2.1814682484 0.0268163159
-0.4912888408 -2.1797666550 0.0268163159
-0.4977667928 -2.1731679440 0.0267552324
-0.5053493977 -2.1714169979 0.0267552324
-0.5129261613 -2.1696398258 0.0267552324
-0.5193173289 -2.1629774570 0.0266941451
-0.5268642902 -2.1611516476 0.0266941451
-0.5331921577 -2.1544492245 0.0266330615
-0.5394793749 -2.1477286816 0.0265719760
-0.5457264781 -2.1409907341 0.0265108887
-0.5456147194 -2.1100490093 0.0261443797
-0.5414522290 -2.0646359921 0.0255946163
-0.5330874920 -2.0047926903 0.0248615947
-0.5400822163 -2.0029196739 0.0248615947
-0.5444084406 -1.9913839102 0.0247394238
-0.5513562560 -1.9894714355 0.0247394238
-0.5582973361 -1.9875347614 0.0247394238
-0.5638505220 -1.9807689190 0.0246783402
-0.5707611442 -1.9787886143 0.0246783402
-0.5762500763 -1.9719889164 0.0246172547
-0.5831300020 -1.9699654579 0.0246172547
-0.5885544419 -1.9631328583 0.0245561711
-0.5968686938 -1.9658464193 0.0246172547
-0.5992817879 -1.9494261742 0.0244340021
-0.6075814366 -1.9520920515 0.0244950838
-0.6189368963 -1.9642529488 0.0246783402
-0.6625499725 -2.0763018131 0.0261443797
-0.6837283969 -2.1167612076 0.0266941451
-0.6911129951 -2.1143615246 0.0266941451
-0.6969080567 -2.1071934700 0.0266330615
-0.7026611567 -2.1000103951 0.0265719760
-0.7099871635 -2.0975449085 0.0265719760
-0.7156737447 -2.0903275013 0.0265108887
-0.7229658365 -2.0878167152 0.0265108887
-0.7302494645 -2.0852804184 0.0265108887
-0.7375239134 -2.0827186108 0.0265108887
-0.7430925369 -2.0754287243 0.0264498051
-0.7469062805 -2.0634284019 0.0263276361
-0.7489153743 -2.0467357635 0.0261443797
-0.7508174181 -2.0300548077 0.0259611271
-0.7526119351 -2.0133852959 0.0257778708
-0.7507419586 -1.9873833656 0.0254724473
-0.7558798194 -1.9800841808 0.0254113600
-0.7627868652 -1.9774336815 0.0254113600
-0.7696849108 -1.9747589827 0.0254113600
-0.7784171104 -1.9767075777 0.0254724473
-0.7871721387 -1.9786190987 0.0255335309
-0.7978264093 -1.9851278067 0.0256556999
-0.8066431880 -1.9869586229 0.0257167872
-0.8173910975 -1.9933727980 0.0258389562
-0.8262686729 -1.9951217175 0.0259000398
-0.8332278132 -1.9922254086 0.0259000398
-0.8382203579 -1.9847040176 0.0258389562
-0.8451430798 -1.9817659855 0.0258389562
-0.8500669003 -1.9742165804 0.0257778708
-0.8549481630 -1.9666574001 0.0257167872
-0.8597869873 -1.9590879679 0.0256556999
-0.8625469208 -1.9469428062 0.0255335309
-0.8652324080 -1.9348025322 0.0254113600
-0.8678439260 -1.9226671457 0.0252891909
-0.8724654913 -1.9150818586 0.0252281073
-0.8791449666 -1.9120247364 0.0252281073
-0.8858140111 -1.9089442492 0.0252281073
-0.8924719691 -1.9058406353 0.0252281073
-0.8991192579 -1.9027136564 0.0252281073
-0.9057554007 -1.8995635509 0.0252281073
-0.9102013111 -1.8918905258 0.0251670200
-0.9167998433 -1.8887017965 0.0251670200
-0.9233869910 -1.8854900599 0.0251670200
-0.9302914143 -1.8820930719 0.0251670200
-0.9365276098 -1.8789976835 0.0251670200
-0.9401703477 -1.8715845346 0.0251059365
-0.9480016828 -1.8676300049 0.0251059365
-0.9545152783 -1.8643094301 0.0251059365
-0.9603674412 -1.8613014221 0.0251059365
-0.9671829939 -1.8577690125 0.0251059365
-0.9716491103 -1.8497915268 0.0250448510
-0.9781000614 -1.8463885784 0.0250448510
-0.9892737269 -1.8517704010 0.0251670200
-0.9957314730 -1.8483060598 0.0251670200
-1.6915394068 -3.0804762840 0.0424540751
-1.7071386576 -3.0832936764 0.0425762460
-1.7178912163 -3.0773155689 0.0425762460
-1.7212457657 -3.0582408905 0.0423929915
-1.7319108248 -3.0522139072 0.0423929915
-1.7400649786 -3.0418140888 0.0423319079
-1.7506722212 -3.0357215405 0.0423319079
-1.7587389946 -3.0252735615 0.0422708243
-1.7667537928 -3.0148065090 0.0422097370
-1.7747173309 -3.0043199062 0.0421486497
-1.7851933241 -2.9981069565 0.0421486497
-1.7956476212 -2.9918572903 0.0421486497
-1.8008916378 -2.9770233631 0.0420264788
-1.8086630106 -2.9664545059 0.0419653952
-1.8085103035 -2.9431004524 0.0417210571
-1.0885920525 -1.7482391596 0.0246783402
-1.0973565578 -1.7486562729 0.0247394238
-1.0900369883 -1.7237226963 0.0244340021
-1.7921475172 -2.8058612347 0.0401939303
-1.8914511204 -2.9381780624 0.0422097370
-1.9044229984 -2.9357481003 0.0422708243
-1.8927233219 -2.8956370354 0.0417821407
-1.9055758715 -2.8931837082 0.0418432280
-1.9073501825 -2.8740301132 0.0416599698
-2.6917729378 -4.0215263367 0.0586416014
-2.7393951416 -4.0618095398 0.0593746193
-3.3843946457 -4.9412474632 0.0726911500
-3.4245238304 -4.9257044792 0.0728133246
-3.4761600494 -4.9628305435 0.0735463426
-3.4905765057 -4.9465832710 0.0734852552
-3.5252246857 -4.9588027000 0.0738517717
-3.5570859909 -4.9667773247 0.0741571933
-3.5890455246 -4.9745907784 0.0744626150
-3.6211025715 -4.9822411537 0.0747680441
-3.6503005028 -4.9856958389 0.0750123858
-3.6825366020 -4.9930291176 0.0753178075
-3.7059135437 -4.9881653786 0.0754399747
-3.7382981777 -4.9952001572 0.0757454038
-3.7677638531 -4.9980797768 0.0759897381
-3.9564104080 -5.1687026024 0.0790439919
-3.8246829510 -4.9609737396 0.0760508254
-3.8419764042 -4.9475927353 0.0760508254
-3.7420477867 -4.7846040726 0.0737295970
-3.5914721489 -4.5595808029 0.0704310089
-3.4144856930 -4.3043589592 0.0666437373
-3.3669972420 -4.2143549919 0.0654220358
-3.3691356182 -4.1870074272 0.0651777014
-3.3742747307 -4.1635785103 0.0649944395
-3.3792917728 -4.1401648521 0.0648111850
-3.3810074329 -4.1129078865 0.0645668432
-3.3634207249 -4.0626029968 0.0639559925
-3.4160506725 -4.0968770981 0.0646890178
-3.4303302765 -4.0849280357 0.0646890178
-3.4542653561 -4.0843715668 0.0648722723
-3.5463972092 -4.1635584831 0.0663383082
-3.6619358063 -4.2686915398 0.0682319477
-3.5426571369 -4.1008968353 0.0657274649
-4.1451301575 -4.7298164368 0.0763562545
-4.1649260521 -4.7190642357 0.0764173344
-4.1846976280 -4.7082314491 0.0764784217
-4.2011079788 -4.6935944557 0.0764784217
-4.2174658775 -4.6789016724 0.0764784217
-4.2640438080 -4.6974430084 0.0770281851
-4.4728703499 -4.8927059174 0.0805100277
-4.5204248428 -4.9101424217 0.0810597986
-4.5409402847 -4.8979959488 0.0811208859
-4.5921578407 -4.9186329842 0.0817317367
-4.6024436951 -4.8952941895 0.0816095620
-4.6057419777 -4.8646879196 0.0813652202
-4.5605425835 -4.7834973335 0.0802656934
-4.6707820892 -4.8648481369 0.0819149911
-4.6877346039 -4.8485145569 0.0819149911
-4.6487812996 -4.7748513222 0.0809376314
-4.5007772446 -4.5909361839 0.0780666322
-4.5891642570 -4.6160850525 0.0790439919
-4.6972947121 -4.6918268204 0.0806322023
-4.7811408043 -4.7422428131 0.0817928165
-4.7869706154 -4.7150082588 0.0816095620
-4.8141307831 -4.7087492943 0.0817928165
-4.8341279030 -4.6953959465 0.0818539038
-4.8540897369 -4.6819610596 0.0819149911
-4.8740162849 -4.6684446335 0.0819760710
-4.8939075470 -4.6548452377 0.0820371583
-4.9137635231 -4.6411647797 0.0820982382
-4.9307417870 -4.6231231689 0.0820982382
-4.9476537704 -4.6050190926 0.0820982382
-4.9600234032 -4.5843305588 0.0820371583
-4.9759950638 -4.5669889450 0.0820371583
-4.9956045151 -4.5529570580 0.0820982382
-5.0114665031 -4.5354914665 0.0820982382
-5.0309901237 -4.5213084221 0.0821593255
-5.0504746437 -4.5070457458 0.0822204128
-5.0661759377 -4.4893889427 0.0822204128
-5.0855717659 -4.4749774933 0.0822814927
-5.1011610031 -4.4571981430 0.0822814927
-5.1204686165 -4.4426374435 0.0823425800
-5.1662678719 -4.4508185387 0.0828312635
-5.2007813454 -4.4489932060 0.0831366852
-5.2467837334 -4.4566817284 0.0836253688
-5.2623081207 -4.4383401871 0.0836253688
-5.2700986862 -4.4135293961 0.0835032016
-5.2854723930 -4.3951067924 0.0835032016
-5.2969241142 -4.3734502792 0.0834421143
-5.3121576309 -4.3549342155 0.0834421143
-5.3312067986 -4.3395180702 0.0835032016
-5.3502135277 -4.3240208626 0.0835642815
-5.3652744293 -4.3053188324 0.0835642815
-5.3849306107 -4.2887377739 0.0836253688
-5.4045391083 -4.2720689774 0.0836864561
-5.4233536720 -4.2562613487 0.0837475359
-5.4421234131 -4.2403745651 0.0838086233
-5.4608497620 -4.2244071960 0.0838697031
-5.4795298576 -4.2083621025 0.0839307904
-5.4981641769 -4.1922378540 0.0839918777
-5.5167527199 -4.1760344505 0.0840529576
-5.5352950096 -4.1597528458 0.0841140449
-5.5537924767 -4.1433911324 0.0841751322
-5.5762610435 -4.1299247742 0.0842972994
-5.5946736336 -4.1133937836 0.0843583867
-5.6130385399 -4.0967841148 0.0844194740
-5.6354064941 -4.0830268860 0.0845416486
-5.6536865234 -4.0662455559 0.0846027285
-5.6800599098 -4.0551919937 0.0847859830
-5.6819357872 -4.0266771317 0.0846027285
-5.6754994392 -3.9924523830 0.0842972994
-5.6606907845 -3.9526035786 0.0838697031
-5.6744542122 -3.9328188896 0.0838697031
-5.6963901520 -3.9186484814 0.0839918777
-5.7141647339 -3.9015564919 0.0840529576
-5.7360310555 -3.8871901035 0.0841751322
-5.7578659058 -3.8727183342 0.0842972994
-5.7796711922 -3.8581399918 0.0844194740
-5.8014435768 -3.8434581757 0.0845416486
-5.8231830597 -3.8286709785 0.0846638158
-5.8448905945 -3.8137791157 0.0847859830
-5.8707637787 -3.8014962673 0.0849692374
-5.8924145699 -3.7863779068 0.0850914046
-5.9140305519 -3.7711565495 0.0852135792
-5.9356117249 -3.7558302879 0.0853357464
-5.9571585655 -3.7403993607 0.0854579210
-5.9786691666 -3.7248632908 0.0855800882
-6.0014386177 -3.7071278095 0.0857022554
-6.0228714943 -3.6913752556 0.0858244225
-6.0442686081 -3.6755166054 0.0859465972
-6.0656275749 -3.6595551968 0.0860687718
-6.0826559067 -3.6409244537 0.0861298516
-6.1039295197 -3.6247694492 0.0862520263
-6.1337833405 -3.6135790348 0.0864963606
-6.1463603973 -3.5921447277 0.0864963606
-6.0593361855 -3.5130681992 0.0850914046
-5.5081138611 -3.1174738407 0.0768449306
-5.4884305000 -3.0811207294 0.0764173344
-5.4353694916 -3.0017063618 0.0753788948
-5.3931689262 -2.9539406300 0.0746458694
-5.3726792336 -2.9184193611 0.0742182732
-5.3828339577 -2.8996462822 0.0742182732
-5.3532152176 -2.8596730232 0.0736685097
-5.3189635277 -2.8176059723 0.0730576664
-5.2977681160 -2.7827756405 0.0726300627
-5.1677961349 -2.5758500099 0.0700644925
-5.1946935654 -2.5666377544 0.0703088343
-5.2081141472 -2.5506830215 0.0703699216
-5.2214856148 -2.5346672535 0.0704310089
-5.2438230515 -2.5229158401 0.0706142634
-5.3112907410 -2.5325160027 0.0714083686
-5.3743658066 -2.5395438671 0.0721413866
-5.3967876434 -2.5271155834 0.0723246410
-5.4055762291 -2.5082621574 0.0723246410
-5.4324760437 -2.4977159500 0.0725689828
-5.4548163414 -2.4849436283 0.0727522373
-5.4771332741 -2.4720458984 0.0729354918
-5.5039935112 -2.4610576630 0.0731798336
-5.5262694359 -2.4478926659 0.0733630806
-5.5485210419 -2.4346022606 0.0735463426
-5.5615725517 -2.4172086716 0.0736074299
-5.5791640282 -2.4017262459 0.0737295970
-5.5875139236 -2.3822355270 0.0737295970
-5.6050109863 -2.3665986061 0.0738517717
-5.6363091469 -2.3566420078 0.0741571933
-5.6029114723 -2.3197777271 0.0736074299
-4.5577235222 -1.8509714603 0.0596189648
-4.5459122658 -1.8268181086 0.0593746193
-4.5479297638 -1.8083018064 0.0593135394
-4.5728311539 -1.7997192144 0.0595578775
-4.5697641373 -1.7801270485 0.0594357066
-4.5759501457 -1.7641649246 0.0594357066
-4.5820798874 -1.7481814623 0.0594357066
-4.5881547928 -1.7321753502 0.0594357066
-4.5941734314 -1.7161494493 0.0594357066
-4.6001358032 -1.7001025677 0.0594357066
-4.5966472626 -1.6806118488 0.0593135394
-4.6589269638 -1.6848989725 0.0600465573
-5.3118410110 -1.8784084320 0.0683541149
-5.4222264290 -1.8960645199 0.0696979910
-5.5044384003 -1.9031959772 0.0706753433
-5.6198921204 -1.9210665226 0.0720803067
-5.7118463516 -1.9301704168 0.0731798336
-5.8039317131 -1.9386570454 0.0742793605
-5.9008936882 -1.9480869770 0.0754399747
-5.9884824753 -1.9537701607 0.0764784217
-6.0717635155 -1.9562746286 0.0774557814
-6.1408452988 -1.9536608458 0.0782498866
-6.2144198418 -1.9531433582 0.0791050792
-6.2880644798 -1.9521374702 0.0799602717
-6.3569951057 -1.9491791725 0.0807543695
-6.4211955070 -1.9443182945 0.0814873949
-6.4854378700 -1.9390326738 0.0822204128
-6.5497217178 -1.9333202839 0.0829534307
-6.6092424393 -1.9257893562 0.0836253688
-6.6639842987 -1.9164882898 0.0842362195
-6.7187404633 -1.9068282843 0.0848470628
-6.7686944008 -1.8954646587 0.0853968337
-6.8234715462 -1.8851014376 0.0860076845
-6.8782567978 -1.8743803501 0.0866185278
-6.9282212257 -1.8620057106 0.0871682987
-6.9830160141 -1.8505821228 0.0877791494
-7.0378150940 -1.8387984037 0.0883899927
-7.0974593163 -1.8278961182 0.0890619308
-7.1522650719 -1.8153749704 0.0896727815
-7.2073836327 -1.8012362719 0.0902836323
-7.2673501968 -1.7879066467 0.0909555629
-7.3221454620 -1.7742676735 0.0915664211
-7.3769330978 -1.7602676153 0.0921772644
-7.4317126274 -1.7459048033 0.0927881151
-7.4864807129 -1.7311828136 0.0933989659
-7.5363597870 -1.7149935961 0.0939487368
-7.5862159729 -1.6984770298 0.0944984928
-7.6311655045 -1.6805614233 0.0949871764
-7.6809697151 -1.6634052992 0.0955369398
-7.7258548737 -1.6448862553 0.0960256234
-7.7658100128 -1.6250532866 0.0964532197
-7.8106179237 -1.6059648991 0.0969418958
-7.8504853249 -1.5855967999 0.0973694921
-7.8903064728 -1.5649679899 0.0977970883
-7.9251689911 -1.5431300402 0.0981635973
-7.9648871422 -1.5220029354 0.0985911936
-8.0045537949 -1.5006172657 0.0990187824
-8.0392503738 -1.4780724049 0.0993853062
-8.0738859177 -1.4553012848 0.0997518077
-8.1136341095 -1.4317595959 0.1001794040
-8.1434640884 -1.4062486887 0.1004848257
-8.1976251602 -1.3861179352 0.1010956764
-8.2270793915 -1.3615607023 0.1014011055
-8.2811393738 -1.3407938480 0.1020119488
-5.9513020515 -0.9012649059 0.0730576664
-5.9494652748 -0.8797588944 0.0729965791
-5.9623975754 -0.8604055643 0.0731187463
-5.9604134560 -0.8388956785 0.0730576664
-5.9682593346 -0.8187586069 0.0731187463
-5.9710807800 -0.7979208231 0.0731187463
-5.9787883759 -0.7777137756 0.0731798336
-5.9814667702 -0.7568395138 0.0731798336
-5.9840717316 -0.7359560132 0.0731798336
-5.9915695190 -0.7156504393 0.0732409209
-6.0089316368 -0.6964454651 0.0734241679
-8.8655204773 -0.9278516769 0.1084258780
-8.8985528946 -0.8999001980 0.1087923869
-8.9215450287 -0.8707618117 0.1090367362
-8.9643535614 -0.8433373570 0.1095254123
-8.9871606827 -0.8138328791 0.1097697467
-9.0148525238 -0.7846100330 0.1100751758
-9.0424489975 -0.7552036643 0.1103805974
-9.0699491501 -0.7256118059 0.1106860191
-9.0923681259 -0.6954612732 0.1109303683
-9.1196727753 -0.6655239463 0.1112357825
-9.1468801498 -0.6354044676 0.1115412191
-9.1739864349 -0.6051030755 0.1118466407
-9.2009935379 -0.5746177435 0.1121520549
-9.2229080200 -0.5436624289 0.1123964041
-9.2497100830 -0.5128349066 0.1127018258
-9.2764091492 -0.4818269610 0.1130072549
-9.3030042648 -0.4506388009 0.1133126765
-9.3295679092 -0.4176409841 0.1136181056
-9.3560123444 -0.3844569027 0.1139235273
-9.3772830963 -0.3525338173 0.1141678765
-9.4034404755 -0.3206368685 0.1144732982
-9.4294891357 -0.2885615826 0.1147787124
-9.4554281235 -0.2563083768 0.1150841489
-9.4862546921 -0.2239927500 0.1154506505
-9.5119724274 -0.1913647801 0.1157560721
-9.5375776291 -0.1585625410 0.1160615087
-9.5630683899 -0.1255838424 0.1163669229
-9.5884466171 -0.0924291164 0.1166723594
-9.6137084961 -0.0590987541 0.1169777811
-9.6388530731 -0.0255906060 0.1172832027
-9.6638832092 0.0080898190 0.1175886318
-9.6837930679 0.0419202298 0.1178329661
-9.7085857391 0.0759316385 0.1181383952
-9.7282581329 0.1100572869 0.1183827296
-9.7528104782 0.1444005668 0.1186881661
-9.7722415924 0.1788197756 0.1189325005
-9.7915143967 0.2150844038 0.1191768423
-9.8106517792 0.2514952719 0.1194211766
-9.8247070312 0.2861837745 0.1196044385
-9.8436346054 0.3211391568 0.1198487729
-9.8624391556 0.3562328219 0.1200931147
-9.8811178207 0.3914590478 0.1203374490
-9.8996706009 0.4268200099 0.1205817983
-9.9131031036 0.4620797336 0.1207650527
-9.9314022064 0.4976913333 0.1210093871
-9.9445819855 0.5331686139 0.1211926490
-9.9576339722 0.5687412620 0.1213758960
-9.9755496979 0.6047168374 0.1216202378
-9.9883451462 0.6405016184 0.1218034849
-10.0010128021 0.6763831973 0.1219867468
-10.0185384750 0.7127211690 0.1222310960
-10.0309457779 0.7488120198 0.1224143431
-10.0432233810 0.7849982977 0.1225975975
-10.0553712845 0.8212794065 0.1227808595
-10.0722179413 0.8598414660 0.1230251938
-10.0839385986 0.8980892897 0.1232084483
-10.0956754684 0.9346761107 0.1233917028
-10.1072807312 0.9713531733 0.1235749573
-10.1137781143 1.0076243877 0.1236971319
-10.1251182556 1.0444682837 0.1238803789
-10.1363239288 1.0814037323 0.1240636408
-10.1473951340 1.1184327602 0.1242468953
-10.1632986069 1.1561172009 0.1244912297
-10.1740970612 1.1933413744 0.1246744916
-10.1847581863 1.2306548357 0.1248577386
-10.1952848434 1.2680573463 0.1250409931
-10.2007141113 1.3049139977 0.1251631677
-10.2109670639 1.3424756527 0.1253464222
-10.2161264420 1.3794529438 0.1254685968
-10.2261056900 1.4171717167 0.1256518513
-10.2359447479 1.4549769163 0.1258351058
-10.2456436157 1.4928705692 0.1260183603
-10.2499923706 1.5318943262 0.1261405349
-10.2591342926 1.5717325211 0.1263237894
-10.2634620667 1.6090872288 0.1264459491
-10.2725915909 1.6472855806 0.1266292036
-10.2766456604 1.6847559214 0.1267513782
-10.2805643082 1.7222745419 0.1268735528
-10.2843437195 1.7598437071 0.1269957125
-10.2879877090 1.7974575758 0.1271178871
-10.2865724564 1.8342380524 0.1271789819
-10.2899436951 1.8719279766 0.1273011416
-10.2931766510 1.9096635580 0.1274233013
-10.2962722778 1.9474474192 0.1275454760
-10.2943201065 1.9843245745 0.1276065707
-10.2971420288 2.0221776962 0.1277287453
-10.2949228287 2.0590918064 0.1277898252
-11.4942665100 2.3831999302 0.1429389119
-11.5250091553 2.4315822124 0.1434275806
-11.4920129776 2.4665393829 0.1431221664
-11.5219659805 2.5171992779 0.1436108500
-6.1544451714 1.3656343222 0.0765395090
-6.2616953850 1.4354782104 0.0780055448
-6.3296718597 1.4744007587 0.0789218247
-6.3342151642 1.4987964630 0.0790439919
-6.4018487930 1.5384811163 0.0799602717
-6.4789938927 1.5810340643 0.0809987113
-6.5559182167 1.6241459846 0.0820371583
-6.6907930374 1.6824890375 0.0838086233
-6.6848793030 1.7058335543 0.0838086233
-6.7175970078 1.7392123938 0.0842972994
-11.3672504425 2.9892795086 0.1431221664
-11.3470849991 3.0263614655 0.1429999918
-11.3219747543 3.0620286465 0.1428167373
-11.2913942337 3.0982029438 0.1425724030
-11.2655143738 3.1355400085 0.1423891336
-11.2400665283 3.1707651615 0.1422058791
-11.2193183899 3.2072279453 0.1420837194
-11.1936492920 3.2421908379 0.1419004649
-11.1726694107 3.2784266472 0.1417782903
-11.1419916153 3.3116996288 0.1415339559
-6.9441962242 2.1147527695 0.0882067457
-6.9511017799 2.1434097290 0.0883899927
-11.0421810150 3.4505159855 0.1408620179
-11.0110044479 3.4829983711 0.1406176686
-10.9940195084 3.5198857784 0.1405565888
-10.9436225891 3.5458934307 0.1400679201
-7.4921417236 2.4547042847 0.0958423689
-7.4550595284 2.4713847637 0.0954758599
-10.9005126953 3.6606080532 0.1400068253
-10.8674459457 3.6959877014 0.1397624761
-10.8456745148 3.7287502289 0.1396403164
-10.8231506348 3.7632970810 0.1395181417
-10.7958011627 3.7960712910 0.1393348873
-10.7683534622 3.8287034035 0.1391516328
-10.7455158234 3.8628811836 0.1390294731
-10.7225704193 3.8969459534 0.1389072984
-10.6948261261 3.9291710854 0.1387240440
-10.6716728210 3.9629929066 0.1386018693
-10.6484146118 3.9967043400 0.1384797096
-10.6250514984 4.0302982330 0.1383575350
-10.6015825272 4.0637779236 0.1382353604
-10.5780105591 4.0971431732 0.1381131858
-10.5543355942 4.1303935051 0.1379910260
-10.5298290253 4.1653680801 0.1378688514
-10.5052080154 4.2002182007 0.1377466768
-10.4812126160 4.2331128120 0.1376245022
-10.4571161270 4.2658920288 0.1375023425
-10.4329185486 4.2985534668 0.1373801678
-10.4132356644 4.3330216408 0.1373190880
-10.3888292313 4.3654685020 0.1371969134
-10.3643245697 4.3977947235 0.1370747387
-10.3397216797 4.4300036430 0.1369525790
-10.3150196075 4.4620938301 0.1368304044
-10.2902193069 4.4940657616 0.1367082298
-10.2653207779 4.5259218216 0.1365860552
-10.2448949814 4.5596914291 0.1365249902
-10.2197971344 4.5913224220 0.1364028156
-10.1946029663 4.6228332520 0.1362806410
-10.1730461121 4.6580848694 0.1362195462
-10.1468305588 4.6911377907 0.1360973865
-10.1258640289 4.7244114876 0.1360362917
-10.1002664566 4.7554674149 0.1359141320
-10.0790910721 4.7885465622 0.1358530521
-10.0532999039 4.8193726540 0.1357308775
-10.0319156647 4.8522558212 0.1356697828
-10.0059328079 4.8828539848 0.1355476081
-9.9843435287 4.9155435562 0.1354865432
-9.9626474380 4.9481387138 0.1354254484
-9.9408454895 4.9806423187 0.1353643686
-9.9144773483 5.0107965469 0.1352421939
-9.8924732208 5.0431008339 0.1351811141
-9.8703632355 5.0753145218 0.1351200193
-9.8481492996 5.1074333191 0.1350589395
-9.8258333206 5.1394591331 0.1349978596
