-10.6140441895 4.0610322952 0.0652269572
-10.5904750824 4.0944552422 0.0651693642
-10.5668020248 4.1277632713 0.0651117638
-10.5383749008 4.1591229439 0.0650253743
-10.5145006180 4.1921868324 0.0649677813
-10.4905261993 4.2251315117 0.0649101809
-10.4664487839 4.2579603195 0.0648525879
-10.4422721863 4.2906723022 0.0647949949
-10.4179925919 4.3232674599 0.0647373945
-10.3936128616 4.3557481766 0.0646798015
-10.3737392426 4.3900551796 0.0646509975
-10.3491554260 4.4223146439 0.0645934120
-10.3290643692 4.4564337730 0.0645646080
-10.3042755127 4.4884719849 0.0645070150
-10.2793884277 4.5203943253 0.0644494146
-10.2589759827 4.5542216301 0.0644206181
-10.2338895798 4.5859193802 0.0643630251
-10.2087068558 4.6174969673 0.0643054321
-10.1826152802 4.6507339478 0.0642478317
-10.1564188004 4.6838388443 0.0641902387
-10.1354732513 4.7171545029 0.0641614348
-10.1098918915 4.7482609749 0.0641038492
-10.0887365341 4.7813825607 0.0640750453
-10.0629615784 4.8122591972 0.0640174523
-10.0415983200 4.8451852798 0.0639886558
-10.0156316757 4.8758339882 0.0639310554
-9.9895725250 4.9063639641 0.0638734624
-9.9679040909 4.9389858246 0.0638446659
-9.9416561127 4.9692831039 0.0637870729
-9.9197845459 5.0017061234 0.0637582690
-9.8978071213 5.0340371132 0.0637294725
-9.8757238388 5.0662784576 0.0637006760
-9.8535375595 5.0984239578 0.0636718795
-9.8312473297 5.1304769516 0.0636430830
-9.8088531494 5.1624360085 0.0636142865
-9.7863559723 5.1943016052 0.0635854825
-9.7637538910 5.2260751724 0.0635566860
-9.7410516739 5.2577519417 0.0635278895
-9.7226390839 5.2917222977 0.0635278895
-9.6997241974 5.3232240677 0.0634990931
-9.6767082214 5.3546309471 0.0634702891
-9.6535892487 5.3859443665 0.0634414926
-9.6303720474 5.4171595573 0.0634127036
-9.6070537567 5.4482779503 0.0633838996
-9.5836353302 5.4792995453 0.0633551031
-9.5591554642 5.5118942261 0.0633263066
-9.5388898849 5.5468916893 0.0633263066
-9.5151529312 5.5776305199 0.0632975101
-9.4956264496 5.6108102798 0.0632975101
-9.4716863632 5.6413650513 0.0632687062
-9.4476480484 5.6718211174 0.0632399097
-9.4277925491 5.7047643661 0.0632399097
-9.3992805481 5.7324380875 0.0631823167
-0.9555167556 0.5930464268 0.0062491167
-0.9321824312 0.5832230449 0.0061051277
-0.9174135327 0.5785358548 0.0060187345
-0.9280881286 0.5897165537 0.0061051277
-0.9217999578 0.5902773738 0.0060763303
-0.9197339416 0.5934914351 0.0060763303
-0.9176567197 0.5966982245 0.0060763303
-0.9155682921 0.5998977423 0.0060763303
-0.9134686589 0.6030899882 0.0060763303
-0.9113578200 0.6062750816 0.0060763303
-0.9134029746 0.6122158766 0.0061051277
-0.9112603664 0.6154004335 0.0061051277
-0.9091067314 0.6185775399 0.0061051277
-0.9069419503 0.6217471361 0.0061051277
-0.9046570063 0.6250671744 0.0061051277
-0.9023598433 0.6283788085 0.0061051277
-0.9001609683 0.6315247416 0.0061051277
-0.8979510665 0.6346629858 0.0061051277
-0.8957302570 0.6377935410 0.0061051277
-0.8934984803 0.6409162879 0.0061051277
-0.8912556767 0.6440314651 0.0061051277
-0.8890022039 0.6471385360 0.0061051277
-0.8867378831 0.6502377391 0.0061051277
-0.8844627738 0.6533290148 0.0061051277
-0.8821768761 0.6564123631 0.0061051277
-0.8798800707 0.6594879031 0.0061051277
-0.8775727153 0.6625552177 0.0061051277
-0.8712599277 0.6626074910 0.0060763303
-0.8689417243 0.6656446457 0.0060763303
-0.8666129708 0.6686737537 0.0060763303
-0.8642734289 0.6716948748 0.0060763303
-0.8658758402 0.6777700186 0.0061051277
-0.8635047674 0.6807883382 0.0061051277
-0.8611231446 0.6837983727 0.0061051277
-0.8587310314 0.6868000031 0.0061051277
-0.8563282490 0.6897935271 0.0061051277
-0.8539152741 0.6927784085 0.0061051277
-0.8514918685 0.6957548857 0.0061051277
-0.8490580320 0.6987228394 0.0061051277
-0.8464913368 0.7018302083 0.0061051277
-0.8439133763 0.7049279213 0.0061051277
-0.8414476514 0.7078694105 0.0061051277
-0.8428021669 0.7140156627 0.0061339256
-0.8403046727 0.7169532180 0.0061339256
-0.8416051865 0.7231218815 0.0061627235
-0.8390759230 0.7260552049 0.0061627235
-0.8327509165 0.7257132530 0.0061339256
-0.8302125335 0.7286158800 0.0061339256
-0.8276641369 0.7315093279 0.0061339256
-0.8251056671 0.7343939543 0.0061339256
-0.8225371838 0.7372695804 0.0061339256
-0.8236865401 0.7434681654 0.0061627235
-0.8210862279 0.7463390231 0.0061627235
-0.8184760213 0.7492005825 0.0061627235
-0.8195486665 0.7554237843 0.0061915210
-0.8169068098 0.7582799196 0.0061915210
-0.8142549992 0.7611267567 0.0061915210
-0.8115930557 0.7639645934 0.0061915210
-0.8089213967 0.7667928934 0.0061915210
-0.8062399030 0.7696118355 0.0061915210
-0.8035485744 0.7724214196 0.0061915210
-0.8008474708 0.7752215862 0.0061915210
-0.7981364131 0.7780124545 0.0061915210
-0.7954158187 0.7807937264 0.0061915210
-0.7962584496 0.7870630622 0.0062203188
-0.7935062647 0.7898377180 0.0062203188
-0.7907444239 0.7926027179 0.0062203188
-0.7879727483 0.7953582406 0.0062203188
-0.7851916552 0.7981038690 0.0062203188
-0.7824010253 0.8008398414 0.0062203188
-0.7761019468 0.7999942899 0.0061915210
-0.7731645107 0.8028335571 0.0061915210
-0.7702169418 0.8056618571 0.0061915210
-0.7675409913 0.8082115650 0.0061915210
-0.7683053017 0.8143725991 0.0062203188
-0.7654579282 0.8170495033 0.0062203188
-0.7658807635 0.8234944344 0.0062491167
-0.7628574371 0.8262959123 0.0062491167
-0.7599683404 0.8289538622 0.0062491167
-0.7570701838 0.8316015601 0.0062491167
-0.7541627884 0.8342391253 0.0062491167
-0.7546041608 0.8405711651 0.0062779151
-0.7516654730 0.8432000875 0.0062779151
-0.7487173676 0.8458188772 0.0062779151
-0.7490793467 0.8521667123 0.0063067130
-0.7461001873 0.8547762632 0.0063067130
-0.7431119680 0.8573753834 0.0063067130
-0.7433942556 0.8637381196 0.0063355104
-0.7403745651 0.8663279414 0.0063355104
-0.7373460531 0.8689070344 0.0063355104
-0.7343085408 0.8714755177 0.0063355104
-0.7312620878 0.8740333915 0.0063355104
-0.7282066941 0.8765805960 0.0063355104
-0.7251423001 0.8791173100 0.0063355104
-0.7220692039 0.8816431165 0.0063355104
-0.7189873457 0.8841582537 0.0063355104
-0.7158967257 0.8866625428 0.0063355104
-0.7127973437 0.8891560435 0.0063355104
-0.7128214240 0.8955360651 0.0063643083
-0.7096911073 0.8980187774 0.0063643083
-0.7065521479 0.9004905820 0.0063643083
-0.7064958811 0.9068811536 0.0063931062
-0.7033260465 0.9093416929 0.0063931062
-0.7032111287 0.9157426357 0.0064219036
-0.6998502016 0.9183137417 0.0064219036
-0.6963189840 0.9209942222 0.0064219036
-0.6962818503 0.9272824526 0.0064507015
-0.6930407882 0.9297072291 0.0064507015
-0.6897913218 0.9321206808 0.0064507015
-0.6865335107 0.9345228076 0.0064507015
-0.6862319708 0.9409396648 0.0064794994
-0.6829433441 0.9433292747 0.0064794994
-0.6796463728 0.9457073808 0.0064794994
-0.6763411760 0.9480740428 0.0064794994
-0.6730276942 0.9504290819 0.0064794994
-0.6668115854 0.9486956596 0.0064507015
-0.6634959579 0.9510174394 0.0064507015
-0.6630380154 0.9574248195 0.0064794994
-0.6682460904 0.9720548987 0.0065658926
-0.6705229878 0.9826157689 0.0066234879
-0.6727339625 0.9932044148 0.0066810837
-0.6664547920 0.9914097786 0.0066522858
-0.6574026346 0.9854369164 0.0065946905
-0.6511796117 0.9835693836 0.0065658926
-0.6477423906 0.9858363867 0.0065658926
-0.6497973800 0.9964427352 0.0066234879
-0.6517863870 1.0070751905 0.0066810837
-0.6482670903 1.0093442202 0.0066810837
-0.6420336366 1.0073966980 0.0066522858
-0.6358217001 1.0054180622 0.0066234879
-0.6296312213 1.0034085512 0.0065946905
-0.6287869811 1.0098325014 0.0066234879
-0.6279055476 1.0162627697 0.0066522858
-0.6243543625 1.0184483528 0.0066522858
-0.6234132051 1.0248814821 0.0066810837
-0.6224344969 1.0313204527 0.0067098811
-0.6188307405 1.0334868431 0.0067098811
-0.6152194738 1.0356407166 0.0067098811
-0.6116007566 1.0377818346 0.0067098811
-0.6079745293 1.0399103165 0.0067098811
-0.6043406725 1.0420264006 0.0067098811
-0.6006996632 1.0441294909 0.0067098811
-0.5970513821 1.0462199450 0.0067098811
-0.5933958292 1.0482976437 0.0067098811
-0.5895494819 1.0504655838 0.0067098811
-0.5858791471 1.0525170565 0.0067098811
-0.5822016597 1.0545557737 0.0067098811
-0.5807526708 1.0610576868 0.0067386790
-0.5770454407 1.0630784035 0.0067386790
-0.5757207274 1.0694781542 0.0067674769
-0.5719840527 1.0714812279 0.0067674769
-0.5705990791 1.0778799057 0.0067962743
-0.5668331385 1.0798650980 0.0067962743
-0.5653883815 1.0862619877 0.0068250722
-0.5615931749 1.0882289410 0.0068250722
-0.5577912331 1.0901825428 0.0068250722
-0.5539821386 1.0921230316 0.0068250722
-0.5637627244 1.1207917929 0.0069978586
-0.6003552675 1.2031196356 0.0075162188
-0.6162657142 1.2454618216 0.0077753994
-0.6274491549 1.2789682150 0.0079769837
-0.6141663790 1.2631982565 0.0078617921
-0.3353045583 0.7203965783 0.0043484638
-0.3434122801 0.7441922426 0.0044924528
-0.3387033939 0.7408531308 0.0044636549
-0.3382085860 0.7465715408 0.0044924528
-0.3335231245 0.7431996465 0.0044636549
-0.3309268951 0.7443593144 0.0044636549
-0.3283264339 0.7455099821 0.0044636549
-0.3236924708 0.7420820594 0.0044348571
-0.3211002052 0.7432074547 0.0044348571
-0.3165062964 0.7397402525 0.0044060596
-0.3119405210 0.7362501621 0.0043772617
-0.3074028194 0.7327373028 0.0043484638
-0.3028936386 0.7292016745 0.0043196664
-0.2964794040 0.7210326791 0.0042620706
-0.2920433283 0.7174454927 0.0042332727
-0.2876359522 0.7138361931 0.0042044749
-0.2813720405 0.7055740952 0.0041468795
-0.2770384848 0.7019144893 0.0041180816
-0.2727339566 0.6982333064 0.0040892838
-0.2684585154 0.6945306063 0.0040604863
-0.2642122507 0.6908066869 0.0040316884
-0.2599951029 0.6870617270 0.0040028905
-0.2558075488 0.6832956672 0.0039740927
-0.2516494393 0.6795088649 0.0039452952
-0.2492760122 0.6803830862 0.0039452952
-0.2451608032 0.6765612364 0.0039164973
-0.2427975237 0.6774129272 0.0039164973
-0.2404314876 0.6782563329 0.0039164973
-0.2363729328 0.6743856072 0.0038876997
-0.2323443592 0.6704949141 0.0038589016
-0.2300025076 0.6713018417 0.0038589016
-0.2260174900 0.6673774123 0.0038301039
-0.2220629007 0.6634333730 0.0038013060
-0.2181385905 0.6594699025 0.0037725084
-0.2142446935 0.6554871202 0.0037437105
-0.2103812546 0.6514853239 0.0037149128
-0.2081057280 0.6522157788 0.0037149128
-0.2042869329 0.6481816769 0.0036861151
-0.2020231336 0.6488907933 0.0036861151
-0.1982492357 0.6448248029 0.0036573173
-0.1945061833 0.6407405138 0.0036285196
-0.1907939166 0.6366379857 0.0035997219
-0.1871128529 0.6325173974 0.0035709240
-0.1847933978 0.6331989169 0.0035709240
-0.1811584681 0.6290470958 0.0035421264
-0.1789616048 0.6296756268 0.0035421264
-0.1752635539 0.6255242229 0.0035133285
-0.1717065722 0.6213242412 0.0034845306
-0.1681812257 0.6171071529 0.0034557327
-0.1646874249 0.6128730774 0.0034269351
-0.1613314301 0.6085940599 0.0033981372
-0.1580056399 0.6042996049 0.0033693395
-0.1557897925 0.6048746109 0.0033693395
-0.1523004174 0.6006060243 0.0033405419
-0.1502030045 0.6011339426 0.0033405419
-0.1481037736 0.6016545892 0.0033405419
-0.1447821409 0.5973192453 0.0033117440
-0.1426961124 0.5978210568 0.0033117440
-0.1394219249 0.5934584141 0.0032829463
-0.1373493820 0.5939415097 0.0032829463
-0.1341224313 0.5895521641 0.0032541484
-0.1320638508 0.5900166631 0.0032541484
-0.1288846284 0.5856009722 0.0032253508
-0.1268398762 0.5860472322 0.0032253508
-0.1247932911 0.5864864588 0.0032253508
-0.1227452084 0.5869185328 0.0032253508
-0.1206958964 0.5873433948 0.0032253508
-0.1186448485 0.5877611041 0.0032253508
-0.1155761406 0.5832761526 0.0031965531
-0.1125399098 0.5787770748 0.0031677552
-0.1095365360 0.5742639303 0.0031389575
-0.1065663025 0.5697367787 0.0031101594
-0.1045767963 0.5701053143 0.0031101594
-0.1016553938 0.5655543804 0.0030813618
-0.0996804982 0.5659058094 0.0030813618
-0.0977044106 0.5662503242 0.0030813618
-0.0957273915 0.5665879250 0.0030813618
-0.0937489495 0.5669186115 0.0030813618
-0.0917696282 0.5672423840 0.0030813618
-0.0881332904 0.5576974750 0.0030237662
-0.0853753388 0.5530679822 0.0029949686
-0.0818576813 0.5434894562 0.0029373730
-0.0784077123 0.5338932872 0.0028797775
-0.0773026273 0.5391056538 0.0029085751
-0.0754202083 0.5393722653 0.0029085751
-0.0711474568 0.5500366688 0.0029661707
-0.0692271888 0.5502816439 0.0029661707
-0.0659953803 0.5406063795 0.0029085751
-0.0634699091 0.5358743668 0.0028797775
-0.0628403127 0.5460151434 0.0029373730
-0.0603306107 0.5412678123 0.0029085751
0.1144516617 0.5273429751 0.0028797775
0.1224622279 0.5562982559 0.0030525639
0.1348585933 0.6047612429 0.0033405419
0.1444066316 0.6384868026 0.0035421264
0.1466346234 0.6379787922 0.0035421264
0.1675040275 0.7203918695 0.0040316884
0.1666763872 0.7051798701 0.0039452952
0.1691370457 0.7045937777 0.0039452952
0.1727429777 0.7088655233 0.0039740927
0.1752164811 0.7082581520 0.0039740927
0.1776878238 0.7076421976 0.0039740927
0.1801566780 0.7070177197 0.0039740927
0.1812856048 0.7015662789 0.0039452952
0.1836111099 0.7009612322 0.0039452952
0.1860569268 0.7003160119 0.0039452952
0.1872356087 0.6948249936 0.0039164973
0.1896600127 0.6941671371 0.0039164973
0.1920817196 0.6935009360 0.0039164973
0.1945014745 0.6928261518 0.0039164973
0.1969188303 0.6921429634 0.0039164973
0.1993334591 0.6914514303 0.0039164973
0.2017460018 0.6907513738 0.0039164973
0.2041557282 0.6900430322 0.0039164973
0.2065633386 0.6893261075 0.0039164973
0.2089684010 0.6886008382 0.0039164973
0.2113705873 0.6878672838 0.0039164973
0.2137705535 0.6871252060 0.0039164973
0.2161675394 0.6863749027 0.0039164973
0.2185622752 0.6856161356 0.0039164973
0.2209543139 0.6848489642 0.0039164973
0.2233433425 0.6840735674 0.0039164973
0.2257299870 0.6832897663 0.0039164973
0.2265643179 0.6777438521 0.0038876997
0.2289288491 0.6769488454 0.0038876997
0.2312905639 0.6761455536 0.0038876997
0.2336491495 0.6753341556 0.0038876997
0.2343897820 0.6697825789 0.0038589016
0.2367261052 0.6689603925 0.0038589016
0.2390599251 0.6681299806 0.0038589016
0.2397259027 0.6625767946 0.0038301039
0.2420370728 0.6617360115 0.0038301039
0.2426478565 0.6561842561 0.0038013060
0.2449366897 0.6553333402 0.0038013060
0.2472228706 0.6544742584 0.0038013060
0.2495060265 0.6536073089 0.0038013060
0.2517858446 0.6527324319 0.0038013060
0.2540628910 0.6518495083 0.0038013060
0.2581323981 0.6556250453 0.0038301039
0.2604195178 0.6547199488 0.0038301039
0.2627034783 0.6538068652 0.0038301039
0.2649838924 0.6528859138 0.0038301039
0.2672614157 0.6519569159 0.0038301039
0.2695353329 0.6510201693 0.0038301039
0.2718062997 0.6500752568 0.0038301039
0.2721646130 0.6445015073 0.0038013060
0.2744124830 0.6435475945 0.0038013060
0.2766573429 0.6425857544 0.0038013060
0.2788985074 0.6416162252 0.0038013060
0.2791629136 0.6360448003 0.0037725084
0.2813815475 0.6350664496 0.0037725084
0.2835964262 0.6340804696 0.0037725084
0.2837865055 0.6285136342 0.0037437105
0.2859784961 0.6275193095 0.0037437105
0.2881673574 0.6265171766 0.0037437105
0.2903526723 0.6255074143 0.0037437105
0.2925341427 0.6244901419 0.0037437105
0.2947123647 0.6234651208 0.0037437105
0.2968866825 0.6224327087 0.0037437105
0.2990576923 0.6213925481 0.0037437105
0.2990764678 0.6158300638 0.0037149128
0.3012241125 0.6147823930 0.0037149128
0.3033684194 0.6137271523 0.0037149128
0.3055086732 0.6126645207 0.0037149128
0.3076455295 0.6115943193 0.0037149128
0.3097786307 0.6105166674 0.0037149128
0.3119076788 0.6094316840 0.0037149128
0.3140332103 0.6083391309 0.0037149128
0.3183218539 0.6117478013 0.0037437105
0.3203487396 0.6106888652 0.0037437105
0.3224783242 0.6095669866 0.0037437105
0.3246042728 0.6084375381 0.0037437105
0.3290601671 0.6117224693 0.0037725084
0.3311935961 0.6105700135 0.0037725084
0.3333229721 0.6094101667 0.0037725084
0.3354479969 0.6082430482 0.0037725084
0.3375692666 0.6070683002 0.0037725084
0.3372750580 0.6015062332 0.0037437105
0.3393727839 0.6003251672 0.0037437105
0.3414663374 0.5991368294 0.0037437105
0.3410986960 0.5935866237 0.0037149128
0.3431687653 0.5923922658 0.0037149128
0.3427472115 0.5868534446 0.0036861151
0.3422915339 0.5813246369 0.0036573173
0.3418014348 0.5758062005 0.0036285196
0.3438091278 0.5746096969 0.0036285196
0.3432655036 0.5691037178 0.0035997219
0.3452497721 0.5679021478 0.0035997219
0.3472301364 0.5666934848 0.0035997219
0.3517985940 0.5697532892 0.0036285196
0.3537850976 0.5685219169 0.0036285196
0.3557675481 0.5672833920 0.0036285196
0.3577454090 0.5660381913 0.0036285196
0.3597191870 0.5647858977 0.0036285196
0.3590220213 0.5592972636 0.0035997219
0.3609719872 0.5580407381 0.0035997219
0.3602218032 0.5525664687 0.0035709240
0.3621482551 0.5513058305 0.0035709240
0.3640705943 0.5500382185 0.0035709240
0.3659884632 0.5487639904 0.0035709240
0.3706561625 0.5516559482 0.0035997219
0.3725796640 0.5503586531 0.0035997219
0.3744983077 0.5490548611 0.0035997219
0.3764127195 0.5477442145 0.0035997219
0.3783225119 0.5464268923 0.0035997219
0.3774004877 0.5409790277 0.0035709240
0.3792866766 0.5396583080 0.0035709240
0.3811679482 0.5383311510 0.0035709240
0.3830448687 0.5369972587 0.0035709240
0.3849171102 0.5356568694 0.0035709240
0.3867843747 0.5343101025 0.0035709240
0.3857345283 0.5288927555 0.0035421264
0.3875781894 0.5275431871 0.0035421264
0.3923584223 0.5302304626 0.0035709240
0.3942069709 0.5288575292 0.0035709240
0.3990196288 0.5315012336 0.0035997219
0.4038557708 0.5341175199 0.0036285196
0.4086212218 0.5367779136 0.0036573173
0.4103054702 0.5354915857 0.0036573173
0.4124518633 0.5338401198 0.0036573173
0.4143126309 0.5323972702 0.0036573173
0.4130238295 0.5270600915 0.0036285196
0.4147693515 0.5256875753 0.0036285196
0.4166019261 0.5242364407 0.0036285196
0.4184291661 0.5227791667 0.0036285196
0.4233579338 0.5252331495 0.0036573173
0.4220685661 0.5198453069 0.0036285196
0.4238806963 0.5183687806 0.0036285196
0.4162459970 0.5052306056 0.0035421264
0.4085245430 0.4921523035 0.0034557327
0.3975430131 0.4752710164 0.0033405419
0.3864485025 0.4584727883 0.0032253508
0.3880466223 0.4571209550 0.0032253508
0.3928545415 0.4595931470 0.0032541484
0.3976841867 0.4620375037 0.0032829463
0.4025358856 0.4644534886 0.0033117440
0.4041545391 0.4630456567 0.0033117440
0.4057684839 0.4616319835 0.0033117440
0.4073775113 0.4602127075 0.0033117440
0.4056872725 0.4550265670 0.0032829463
0.4072732627 0.4536076188 0.0032829463
0.4022135735 0.4447066188 0.0032253508
0.4237630367 0.4656602442 0.0033981372
0.4320784807 0.4716082811 0.0034557327
0.4437995553 0.4812074602 0.0035421264
0.4522208869 0.4870385230 0.0035997219
0.4539180398 0.4854571521 0.0035997219
0.4590077400 0.4875376225 0.0036285196
0.4607068598 0.4859323204 0.0036285196
0.4624001086 0.4843213260 0.0036285196
0.4675240219 0.4863364100 0.0036573173
0.4657699764 0.4810814559 0.0036285196
0.4674465358 0.4794525802 0.0036285196
0.4655606747 0.4743031859 0.0035997219
0.4670483768 0.4728383124 0.0035997219
0.4687784314 0.4711231291 0.0035997219
0.4704199731 0.4694840610 0.0035997219
0.4720560014 0.4678390324 0.0035997219
0.4736860693 0.4661885500 0.0035997219
0.4753105640 0.4645321369 0.0035997219
0.4769292772 0.4628700614 0.0035997219
0.4785419703 0.4612025917 0.0035997219
0.4801490307 0.4595292807 0.0035997219
0.4817500114 0.4578505754 0.0035997219
0.4869535267 0.4596273601 0.0036285196
0.4885550439 0.4579246938 0.0036285196
0.4901503921 0.4562166631 0.0036285196
0.4953841567 0.4579261541 0.0036573173
0.4969794750 0.4561942816 0.0036573173
0.4985689521 0.4544566274 0.0036573173
0.5001523495 0.4527134299 0.0036573173
0.5017294288 0.4509649575 0.0036573173
0.5033006072 0.4492107630 0.0036573173
0.5048654675 0.4474513233 0.0036573173
0.5064243674 0.4456861913 0.0036573173
0.5117154717 0.4472358525 0.0036861151
0.5095234513 0.4421398938 0.0036573173
0.5110637546 0.4403585494 0.0036573173
0.5125976801 0.4385720491 0.0036573173
0.5179098845 0.4400476813 0.0036861151
0.5156471133 0.4349825978 0.0036573173
0.5171622634 0.4331801534 0.0036573173
0.5186712742 0.4313721955 0.0036573173
0.5201737285 0.4295592010 0.0036573173
0.5216701031 0.4277407229 0.0036573173
0.5269370675 0.4291968346 0.0036861151
0.5283574462 0.4274470806 0.0036861151
0.5298461914 0.4256003201 0.0036861151
0.5313286781 0.4237481058 0.0036861151
0.5328046679 0.4218907654 0.0036861151
0.5342739820 0.4200285077 0.0036861151
0.5357369781 0.4181608856 0.0036861151
0.5371932387 0.4162884057 0.0036861151
0.5386431813 0.4144106209 0.0036861151
0.5400865078 0.4125277698 0.0036861151
0.5415230989 0.4106401503 0.0036861151
0.5389828682 0.4057084024 0.0036573173
0.5403956771 0.4038246572 0.0036573173
0.5418020487 0.4019357562 0.0036573173
0.5432018638 0.4000419676 0.0036573173
0.5445948243 0.3981435597 0.0036573173
0.5500041842 0.3992092013 0.0036861151
0.5513942242 0.3972870409 0.0036861151
0.5568212271 0.3983007669 0.0037149128
0.5622619390 0.3992814422 0.0037437105
0.5677160621 0.4002292156 0.0037725084
0.5731837749 0.4011434615 0.0038013060
0.5786646008 0.4020246267 0.0038301039
0.5759702921 0.3971321583 0.0038013060
0.5814572573 0.3979747891 0.0038301039
0.5787286758 0.3931015432 0.0038013060
0.5841526389 0.3940078914 0.0038301039
0.5854560137 0.3920685947 0.0038301039
0.5909637809 0.3928219974 0.0038589016
0.5923312306 0.3907569349 0.0038589016
0.5936917067 0.3886868060 0.0038589016
0.5950447321 0.3866122663 0.0038589016
0.5963907242 0.3845326900 0.0038589016
0.5977294445 0.3824484348 0.0038589016
0.5990606546 0.3803598285 0.0038589016
0.6003848314 0.3782662451 0.0038589016
0.6017014384 0.3761684000 0.0038589016
0.6072395444 0.3767337203 0.0038876997
0.6085509658 0.3746116459 0.0038876997
0.6141018867 0.3751237392 0.0039164973
0.6154076457 0.3729777038 0.0039164973
0.6167057157 0.3708274662 0.0039164973
0.6179964542 0.3686723709 0.0039164973
0.6192796826 0.3665128052 0.0039164973
0.6205551624 0.3643490672 0.0039164973
0.6218232512 0.3621805608 0.0039164973
0.6230835915 0.3600080013 0.0039164973
0.6243365407 0.3578307033 0.0039164973
0.6212540269 0.3531453311 0.0038876997
0.6224828362 0.3509747684 0.0038876997
0.6150137186 0.3438526690 0.0038301039
0.6118562818 0.3392457068 0.0038013060
0.6130368114 0.3371077478 0.0038013060
0.6098389626 0.3325378597 0.0037725084
0.6065020561 0.3282063305 0.0037437105
0.6076439619 0.3260874450 0.0037437105
0.6043832898 0.3215807974 0.0037149128
0.6010986567 0.3171009421 0.0036861151
0.5889664292 0.3079428375 0.0035997219
0.6209776402 0.3222460151 0.0038013060
0.6398110986 0.3293640614 0.0039164973
0.6498293281 0.3317413330 0.0039740927
0.6554276347 0.3317617476 0.0040028905
0.6565815806 0.3294720352 0.0040028905
0.6577277780 0.3271780014 0.0040028905
0.6588656902 0.3248803020 0.0040028905
0.6599957943 0.3225783110 0.0040028905
0.6611178517 0.3202724159 0.0040028905
0.6622316837 0.3179629147 0.0040028905
0.6633376479 0.3156492412 0.0040028905
0.6644353271 0.3133320510 0.0040028905
0.6655250788 0.3110106885 0.0040028905
0.6666066647 0.3086855412 0.0040028905
0.6676800251 0.3063569665 0.0040028905
0.6687453985 0.3040243089 0.0040028905
0.6698024869 0.3016883135 0.0040028905
0.6663007736 0.2972772419 0.0039740927
0.6627764106 0.2928943336 0.0039452952
0.6592295170 0.2885400057 0.0039164973
0.6556605101 0.2842136919 0.0038876997
0.6474415064 0.2780216336 0.0038301039
0.6437743306 0.2738801837 0.0038013060
0.6447263360 0.2716315091 0.0038013060
0.6410712600 0.2674183547 0.0037725084
0.6420007348 0.2651791573 0.0037725084
0.6429225206 0.2629364133 0.0037725084
0.6484561563 0.2626030445 0.0038013060
0.6493687630 0.2603380978 0.0038013060
0.6502736211 0.2580696642 0.0038013060
0.6511704326 0.2557983994 0.0038013060
0.6520593762 0.2535237074 0.0038013060
0.6529404521 0.2512459457 0.0038013060
0.6491547227 0.2471499890 0.0037725084
0.6453485489 0.2430832386 0.0037437105
0.6415218115 0.2390464246 0.0037149128
0.6423523426 0.2368055135 0.0037149128
0.6384915113 0.2328115255 0.0036861151
0.6346105337 0.2288477123 0.0036573173
0.6307098866 0.2249135375 0.0036285196
0.6267893910 0.2210097313 0.0035997219
0.6275570989 0.2188203484 0.0035997219
0.6236037016 0.2149601281 0.0035709240
0.6196309924 0.2111304998 0.0035421264
0.6156030893 0.2074384838 0.0035133285
0.6115574837 0.2037754953 0.0034845306
0.6075642109 0.1999297142 0.0034557327
0.6082584858 0.1978075653 0.0034557327
0.6041643023 0.1942186356 0.0034269351
0.6000863910 0.1905542314 0.0033981372
0.5959902406 0.1869209707 0.0033693395
0.5918761492 0.1833183616 0.0033405419
0.5925123692 0.1812513769 0.0033405419
0.5883680582 0.1776942015 0.0033117440
0.5842061043 0.1741682291 0.0032829463
0.5848104954 0.1721280664 0.0032829463
0.5854077935 0.1700855494 0.0032829463
0.5812041163 0.1666203290 0.0032541484
0.5817822218 0.1645904183 0.0032541484
0.5775496364 0.1611711234 0.0032253508
0.5781086683 0.1591542810 0.0032253508
0.5786607265 0.1571352333 0.0032253508
0.5743878484 0.1537775248 0.0031965531
0.5749211907 0.1517714709 0.0031965531
0.5705944896 0.1485599279 0.0031677552
0.5711095333 0.1465674639 0.0031677552
0.5668318272 0.1431047022 0.0031389575
0.5624384284 0.1400694549 0.0031101594
0.5580554605 0.1369660348 0.0030813618
0.5585300922 0.1350173801 0.0030813618
0.5541451573 0.1318631619 0.0030525639
0.5546020269 0.1299281865 0.0030525639
0.5550522208 0.1279913634 0.0030525639
0.5506304502 0.1249002144 0.0030237662
0.5510630012 0.1229775473 0.0030237662
0.5514889359 0.1210531369 0.0030237662
0.5519081354 0.1191274971 0.0030237662
0.5474398136 0.1161153987 0.0029949686
0.5478417873 0.1142036766 0.0029949686
0.5433487892 0.1112401783 0.0029661707
0.5437337756 0.1093427613 0.0029661707
0.5392166376 0.1064277813 0.0029373730
0.5395848751 0.1045447960 0.0029373730
0.5350440741 0.1016782895 0.0029085751
0.5353956819 0.0998101607 0.0029085751
0.5308316350 0.0969925523 0.0028797775
0.5311669707 0.0951391608 0.0028797775
0.5314958096 0.0932843536 0.0028797775
0.5318182111 0.0914284214 0.0028797775
0.5321341157 0.0895716250 0.0028797775
0.4852603972 -0.2587429285 -0.0006231476
0.4931771755 -0.2651422620 -0.0006353661
0.5054582357 -0.2739688456 -0.0006536940
0.5396581888 -0.2948056161 -0.0007025683
0.5649452209 -0.3110851049 -0.0007392240
0.5945030451 -0.3299593925 -0.0007819891
0.6195658445 -0.3466134965 -0.0008186448
0.6183521748 -0.3487740755 -0.0008186448
0.6301888824 -0.3583121896 -0.0008369727
0.6332783103 -0.3629855514 -0.0008430820
0.6363427639 -0.3676848114 -0.0008491913
0.6393820643 -0.3724098802 -0.0008553006
0.6380782127 -0.3746394813 -0.0008553006
0.6367666125 -0.3768644929 -0.0008553006
0.6397473216 -0.3816361427 -0.0008614099
0.6384112835 -0.3838669360 -0.0008614099
0.6413496733 -0.3886742592 -0.0008675192
0.6399890184 -0.3909106255 -0.0008675192
0.6428847313 -0.3957532048 -0.0008736284
0.6415688396 -0.3978829086 -0.0008736284
0.6444925666 -0.4026474655 -0.0008797377
0.6430830956 -0.4048947394 -0.0008797377
0.6458940506 -0.4098058045 -0.0008858470
0.6233655214 -0.3986401558 -0.0008553006
0.6472267509 -0.4170032442 -0.0008919563
0.6835671663 -0.4436764121 -0.0009469399
0.7113477588 -0.4651529193 -0.0009897050
0.7557101846 -0.4977972507 -0.0010569072
0.8207095861 -0.5445404649 -0.0011546558
0.8687441945 -0.5806577802 -0.0012279673
0.9456000924 -0.6366174221 -0.0013440439
1.0345016718 -0.7015209198 -0.0014784480
3.8297183514 -2.6107091904 -0.0056144372
3.7958464622 -2.6070866585 -0.0055777817
3.7826099396 -2.6174771786 -0.0055716722
3.7693474293 -2.6278071404 -0.0055655632
3.7601516247 -2.6409487724 -0.0055655632
3.7549929619 -2.6569442749 -0.0055716722
3.7456955910 -2.6700356007 -0.0055716722
3.7363526821 -2.6830942631 -0.0055716722
3.7269639969 -2.6961202621 -0.0055716722
3.7175300121 -2.7091133595 -0.0055716722
3.7090008259 -2.7207789421 -0.0055716722
3.6994810104 -2.7337090969 -0.0055716722
3.6899161339 -2.7466061115 -0.0055716722
3.6803061962 -2.7594695091 -0.0055716722
3.6666600704 -2.7692875862 -0.0055655632
3.6529905796 -2.7790439129 -0.0055594537
3.6432678699 -2.7917780876 -0.0055594537
3.6295413971 -2.8014252186 -0.0055533447
3.6197404861 -2.8140776157 -0.0055533447
3.6059572697 -2.8236148357 -0.0055472353
3.5960791111 -2.8361847401 -0.0055472353
3.5861573219 -2.8487198353 -0.0055472353
3.5761914253 -2.8612205982 -0.0055472353
3.5661821365 -2.8736865520 -0.0055472353
3.5600128174 -2.8892667294 -0.0055533447
3.5460331440 -2.8985130787 -0.0055472353
3.5358939171 -2.9108731747 -0.0055472353
3.5141606331 -2.9136285782 -0.0055289078
1.2467129230 -1.0499414206 -0.0019427541
1.1069834232 -0.9518312216 -0.0017350384
1.0885188580 -0.9426158667 -0.0017106012
1.0625874996 -0.9267201424 -0.0016739455
1.0443024635 -0.9172446132 -0.0016495084
1.0185979605 -0.9010369778 -0.0016128524
0.9967573881 -0.8879824281 -0.0015823061
0.9750205874 -0.8747865558 -0.0015517597
0.9496737719 -0.8581030369 -0.0015151040
0.9281583428 -0.8446132541 -0.0014845574
0.9067490101 -0.8309839964 -0.0014540110
0.8817670345 -0.8138301373 -0.0014173553
0.8605835438 -0.7999107242 -0.0013868088
0.8431637883 -0.7892647982 -0.0013623717
0.8221853971 -0.7750831842 -0.0013318253
0.8013164401 -0.7607648373 -0.0013012787
0.7841774225 -0.7497598529 -0.0012768416
0.7635175586 -0.7351827621 -0.0012462952
0.7465646863 -0.7239453197 -0.0012218580
0.7261164188 -0.7091115117 -0.0011913115
0.7093521953 -0.6976435184 -0.0011668744
0.6891181469 -0.6825553775 -0.0011363280
0.6689982414 -0.6673346758 -0.0011057814
0.6454589963 -0.6484452486 -0.0010691257
0.6220599413 -0.6293998957 -0.0010324700
0.6199693680 -0.6314592361 -0.0010324700
0.6179825068 -0.6334038377 -0.0010324700
0.6121709943 -0.6320800185 -0.0010263607
0.6030143499 -0.6270196438 -0.0010141422
0.5973612070 -0.6255120039 -0.0010080328
0.5917260647 -0.6239724755 -0.0010019236
0.5861089826 -0.6224012971 -0.0009958142
0.5805100799 -0.6207985878 -0.0009897050
0.5817495584 -0.6264779568 -0.0009958142
0.5625731349 -0.6101615429 -0.0009652678
0.5435179472 -0.5937191844 -0.0009347214
0.5144701004 -0.5660745502 -0.0008858470
0.5124909878 -0.5678669810 -0.0008858470
0.5038143396 -0.5622209907 -0.0008736284
0.4951834381 -0.5565214753 -0.0008614099
0.4965574145 -0.5619856119 -0.0008675192
0.5012058616 -0.5712165236 -0.0008797377
0.4992088675 -0.5729625821 -0.0008797377
0.5136072636 -0.5935694575 -0.0009102842
3.4058539867 -4.0018000603 -0.0063719889
3.3983218670 -4.0213003159 -0.0063842079
3.3746185303 -4.0216507912 -0.0063658804
3.3669633865 -4.0410866737 -0.0063780984
3.3560252190 -4.0566663742 -0.0063842079
3.3450193405 -4.0722188950 -0.0063903173
3.3307845592 -4.0838704109 -0.0063903173
3.3196566105 -4.0993566513 -0.0063964264
3.3084611893 -4.1148147583 -0.0064025358
3.2971985340 -4.1302452087 -0.0064086453
3.2889754772 -4.1495642662 -0.0064208638
3.2775642872 -4.1649475098 -0.0064269728
3.2691652775 -4.1842412949 -0.0064391918
3.2576055527 -4.1995768547 -0.0064453012
3.2459783554 -4.2148828506 -0.0064514098
3.2373223305 -4.2341299057 -0.0064636287
3.2225229740 -4.2454042435 -0.0064636287
3.2137048244 -4.2646112442 -0.0064758472
3.2017955780 -4.2798056602 -0.0064819567
3.1629765034 -4.2588520050 -0.0064330823
3.1656661034 -4.3252010345 -0.0065002842
3.1593701839 -4.3483572006 -0.0065186126
3.1441724300 -4.3593592644 -0.0065186126
3.1289360523 -4.3703079224 -0.0065186126
2.7393648624 -3.9109845161 -0.0057854974
2.7299218178 -3.9236745834 -0.0057916068
2.7148361206 -3.9341275692 -0.0057916068
2.7046027184 -3.9472324848 -0.0057977159
2.6908080578 -3.9566493034 -0.0057977159
2.6769804955 -3.9660177231 -0.0057977159
2.6659045219 -3.9794912338 -0.0058038253
2.6519970894 -3.9887726307 -0.0058038253
2.6408128738 -4.0021781921 -0.0058099348
2.6268267632 -4.0113716125 -0.0058099348
2.6128084660 -4.0205163956 -0.0058099348
2.6014695168 -4.0338129997 -0.0058160438
2.5873730183 -4.0428695679 -0.0058160438
2.5759270191 -4.0560965538 -0.0058221533
2.5617532730 -4.0650629997 -0.0058221533
2.5502004623 -4.0782189369 -0.0058282628
2.5359492302 -4.0870962143 -0.0058282628
2.5242900848 -4.1001801491 -0.0058343722
2.5099623203 -4.1089668274 -0.0058343722
2.4981973171 -4.1219778061 -0.0058404808
2.4863717556 -4.1349573135 -0.0058465903
2.4770493507 -4.1521973610 -0.0058588092
2.4676368237 -4.1694221497 -0.0058710277
2.0884354115 -3.6150312424 -0.0050523826
2.0807797909 -3.6309738159 -0.0050646015
2.0680925846 -3.6382148266 -0.0050646015
2.0578377247 -3.6497662067 -0.0050707110
2.0524122715 -3.6700155735 -0.0050890385
2.0444431305 -3.6859002113 -0.0051012570
2.0388000011 -3.7061541080 -0.0051195850
2.0312933922 -3.7216699123 -0.0051318035
2.0237061977 -3.7371771336 -0.0051440224
2.0153832436 -3.7530264854 -0.0051562404
2.0069746971 -3.7688632011 -0.0051684594
1.9984796047 -3.7846865654 -0.0051806779
1.9898986816 -3.8004970551 -0.0051928964
1.9835370779 -3.8207297325 -0.0052112243
1.9770585299 -3.8409643173 -0.0052295518
1.9704632759 -3.8612003326 -0.0052478802
1.9660092592 -3.8858971596 -0.0052723172
1.9614068270 -3.9106097221 -0.0052967547
1.9544278383 -3.9308612347 -0.0053150821
1.9473311901 -3.9511113167 -0.0053334101
1.9357241392 -3.9623763561 -0.0053395191
1.9197001457 -3.9646096230 -0.0053334101
1.9188405275 -3.9983279705 -0.0053700660
2.4981069565 -5.2509832382 -0.0070562302
2.4925644398 -5.2868022919 -0.0070928857
2.4804477692 -5.3090586662 -0.0071112132
2.4703090191 -5.3358311653 -0.0071356501
2.4537549019 -5.3489656448 -0.0071417596
2.4392087460 -5.3666014671 -0.0071539786
2.4266242981 -5.3887581825 -0.0071723065
2.4118757248 -5.4063267708 -0.0071845246
2.3990573883 -5.4284310341 -0.0072028530
2.3841073513 -5.4459314346 -0.0072150710
2.3720088005 -5.4675669670 -0.0072333994
2.3558404446 -5.4799957275 -0.0072395084
2.3464980125 -5.5111842155 -0.0072700549
2.3155815601 -5.4917025566 -0.0072333994
2.2867586613 -5.4766850471 -0.0072028530
2.2666702271 -5.4850296974 -0.0072028530
2.2276108265 -5.4470267296 -0.0071417596
2.2517747879 -5.5613503456 -0.0072822738
2.2649834156 -5.6476693153 -0.0073861317
2.2536308765 -5.6737346649 -0.0074105687
2.2356431484 -5.6862192154 -0.0074166777
2.2175951004 -5.6986474991 -0.0074227871
2.0441026688 -5.3636174202 -0.0069645904
1.9829903841 -5.2584519386 -0.0068179676
1.9593750238 -5.2512898445 -0.0067996397
2.1252319813 -5.8189764023 -0.0075205355
2.1066069603 -5.8310618401 -0.0075266450
2.0929753780 -5.8572111130 -0.0075510824
2.0758523941 -5.8739089966 -0.0075633009
1.7197635174 -5.0342850685 -0.0064514098
1.6925719976 -5.0118379593 -0.0064147543
1.6782369614 -5.0271997452 -0.0064269728
1.6638149023 -5.0425229073 -0.0064391918
1.6493066549 -5.0578055382 -0.0064514098
1.6347115040 -5.0730495453 -0.0064636287
1.6200305223 -5.0882520676 -0.0064758472
1.6052633524 -5.1034145355 -0.0064880657
1.5918945074 -5.1233096123 -0.0065063937
1.5769385099 -5.1383943558 -0.0065186126
1.5633476973 -5.1582212448 -0.0065369401
1.5491061211 -5.1729555130 -0.0065491586
1.5362036228 -5.1924467087 -0.0065674866
1.5213694572 -5.2124400139 -0.0065858145
1.5087080002 -5.2369356155 -0.0066102515
1.4954432249 -5.2563357353 -0.0066285795
1.4824975729 -5.2807774544 -0.0066530164
1.4680641890 -5.3003749847 -0.0066713449
1.4548312426 -5.3247580528 -0.0066957818
1.4401425123 -5.3442859650 -0.0067141098
1.4266216755 -5.3686079979 -0.0067385468
1.4116789103 -5.3880639076 -0.0067568743
1.3978704214 -5.4123215675 -0.0067813117
1.3839095831 -5.4365487099 -0.0068057487
1.3697959185 -5.4607434273 -0.0068301857
1.3543298244 -5.4800529480 -0.0068485141
1.3399288654 -5.5041780472 -0.0068729511
1.3253767490 -5.5282688141 -0.0068973885
1.3106727600 -5.5523252487 -0.0069218255
1.2958160639 -5.5763459206 -0.0069462629
1.2830408812 -5.6100778580 -0.0069829179
1.2656482458 -5.6242780685 -0.0069951368
1.2514194250 -5.6530690193 -0.0070256833
1.2359398603 -5.6769437790 -0.0070501207
1.4086149931 -6.8107843399 -0.0084491484
1.3888200521 -6.8352580070 -0.0084735854
1.3708307743 -6.8694825172 -0.0085102404
1.3487681150 -6.8840389252 -0.0085224593
1.3275669813 -6.9034342766 -0.0085407868
1.3062458038 -6.9227657318 -0.0085591152
1.2838956118 -6.9371156693 -0.0085713342
1.2712953091 -7.0055074692 -0.0086507546
1.2442027330 -6.9951353073 -0.0086324271
1.2008657455 -6.8910737038 -0.0084980223
1.1574271917 -6.7818675041 -0.0083575081
1.1684073210 -6.9929862022 -0.0086140987
1.1641910076 -7.1203784943 -0.0087668309
1.1298390627 -7.0651545525 -0.0086935190
1.0974351168 -7.0196576118 -0.0086324271
1.0774625540 -7.0531001091 -0.0086690821
1.0565316677 -7.0815439224 -0.0086996285
1.0346934795 -7.1049790382 -0.0087240664
1.0134081841 -7.1332983971 -0.0087546129
0.9891897440 -7.1417446136 -0.0087607224
0.9582244158 -7.1005601883 -0.0087057380
0.9432228208 -7.1782197952 -0.0087973773
0.8921125531 -6.9781303406 -0.0085468963
0.8275779486 -6.6586942673 -0.0081497934
0.8205485344 -6.7955641747 -0.0083147436
0.8096557856 -6.9076361656 -0.0084491484
0.7884460688 -6.9251861572 -0.0084674759
0.7704303265 -6.9724893570 -0.0085224593
0.7487527728 -6.9999938011 -0.0085530058
0.7268915772 -7.0274310112 -0.0085835522
0.7048488855 -7.0548009872 -0.0086140987
0.6826230288 -7.0821027756 -0.0086446451
0.6606796384 -7.1143131256 -0.0086813010
0.6380734444 -7.1414756775 -0.0087118475
0.6157135367 -7.1735491753 -0.0087485034
0.5927269459 -7.2005701065 -0.0087790499
0.5699523091 -7.2325015068 -0.0088157048
0.5469628572 -7.2643618584 -0.0088523608
0.5237579346 -7.2961492538 -0.0088890167
0.5006785989 -7.3328514099 -0.0089317821
0.4760527015 -7.3495225906 -0.0089501096
0.4525434673 -7.3860735893 -0.0089928741
0.4276275933 -7.4025831223 -0.0090112025
0.3889992833 -8.2257308960 -0.0100131258
0.3611624539 -8.2470197678 -0.0100375637
0.3297419846 -8.1832828522 -0.0099581424
0.3011754155 -8.1843843460 -0.0099581424
0.2722690403 -8.1753911972 -0.0099459235
0.2432801723 -8.1612987518 -0.0099275960
0.2145245224 -8.1521015167 -0.0099153770
0.1856067926 -8.1328067780 -0.0098909410
0.1567286402 -8.1084089279 -0.0098603936
0.1280220002 -8.0839099884 -0.0098298481
0.0354873575 -6.6748304367 -0.0081070280
0.0121670477 -6.6649141312 -0.0080948090
-0.0110565610 -6.6349158287 -0.0080581531
-0.0341430157 -6.6198368073 -0.0080398256
-0.0571252182 -6.6046781540 -0.0080214981
-0.0801791474 -6.6044383049 -0.0080214981
-0.1028481424 -6.5791211128 -0.0079909516
-0.1253422499 -6.5537266731 -0.0079604043
-0.1498932838 -6.6282300949 -0.0080520436
-0.1962749809 -7.5273656845 -0.0091517158
-0.2067174464 -6.9868674278 -0.0084919129
-0.2155215740 -6.5113592148 -0.0079115303
-0.1219325662 -3.0174655914 -0.0036411369
-0.1086660996 -2.4675369263 -0.0029691148
-0.1163434684 -2.4471645355 -0.0029446776
-0.1251360476 -2.4517371655 -0.0029507871
-0.1347682476 -2.4712564945 -0.0029752243
-0.1431075037 -2.4657790661 -0.0029691148
-0.1514105201 -2.4602739811 -0.0029630056
-0.1593555808 -2.4497511387 -0.0029507871
-0.1675673723 -2.4441912174 -0.0029446776
-0.1753868610 -2.4336168766 -0.0029324591
-0.1830835789 -2.4280357361 -0.0029263499
-0.1911683828 -2.4223971367 -0.0029202404
-0.1992157549 -2.4167315960 -0.0029141314
-0.2068053186 -2.4110755920 -0.0029080219
-0.2151990831 -2.4053211212 -0.0029019127
-0.2240135372 -2.4045162201 -0.0029019127
-0.2319281846 -2.3987424374 -0.0028958034
-0.2398049682 -2.3929429054 -0.0028896942
-0.2481563091 -2.3920912743 -0.0028896942
-0.2555587888 -2.3862831593 -0.0028835847
-0.2644328773 -2.3903467655 -0.0028896942
-0.2779836655 -2.4391391277 -0.0029507871
-0.2927291691 -2.4877653122 -0.0030118800
-0.3012463450 -2.4817118645 -0.0030057707
-0.3074423969 -2.4607977867 -0.0029813335
-0.3198317289 -2.4894676208 -0.0030179892
-0.3164893985 -2.3335647583 -0.0028286013
-0.3260039985 -2.3423511982 -0.0028408200
-0.3341785073 -2.3411989212 -0.0028408200
-0.3409085572 -2.3301224709 -0.0028286013
-0.3482271731 -2.3290400505 -0.0028286013
-0.3556022346 -2.3228671551 -0.0028224918
-0.3629381955 -2.3166716099 -0.0028163828
-0.3702351749 -2.3104529381 -0.0028102733
-0.3774935007 -2.3042113781 -0.0028041638
-0.3847125173 -2.2979478836 -0.0027980548
-0.3910536766 -2.2867326736 -0.0027858361
-0.3981771171 -2.2804274559 -0.0027797269
-0.4052613974 -2.2741007805 -0.0027736176
-0.4123066068 -2.2677521706 -0.0027675082
-0.4193121791 -2.2613823414 -0.0027613991
-0.4262785614 -2.2549910545 -0.0027552897
-0.4332052171 -2.2485790253 -0.0027491804
-0.4410514534 -2.2470531464 -0.0027491804
-0.4479162991 -2.2405960560 -0.0027430712
-0.4547412097 -2.2341187000 -0.0027369619
-0.4615266025 -2.2276206017 -0.0027308525
-0.4682719409 -2.2211029530 -0.0027247434
-0.4760220647 -2.2194550037 -0.0027247434
-0.4827049077 -2.2128937244 -0.0027186340
-0.4904263020 -2.2111952305 -0.0027186340
-0.4970462024 -2.2045915127 -0.0027125247
-0.5047385097 -2.2028429508 -0.0027125247
-0.5112947822 -2.1961970329 -0.0027064155
-0.5189580321 -2.1943988800 -0.0027064155
-0.5266146064 -2.1925740242 -0.0027064155
-0.5330843329 -2.1858639717 -0.0027003062
-0.5407110453 -2.1839897633 -0.0027003062
-0.5471164584 -2.1772387028 -0.0026941968
-0.5547133088 -2.1753156185 -0.0026941968
-0.5598060489 -2.1636829376 -0.0026819783
-0.5660901070 -2.1568784714 -0.0026758690
-0.5389935970 -2.0244045258 -0.0025109183
-0.5447575450 -2.0176825523 -0.0025048088
-0.5504813790 -2.0109448433 -0.0024986994
-0.5534989834 -1.9945538044 -0.0024803716
-0.5604580641 -1.9926096201 -0.0024803716
-0.5674100518 -1.9906411171 -0.0024803716
-0.5729718804 -1.9838434458 -0.0024742624
-0.5798934102 -1.9818311930 -0.0024742624
-0.5853909850 -1.9750000238 -0.0024681531
-0.5908481479 -1.9681543112 -0.0024620437
-0.5977145433 -1.9660799503 -0.0024620437
-0.6045737267 -1.9639815092 -0.0024620437
-0.6173599362 -1.9809585810 -0.0024864809
-0.6287714839 -1.9931005239 -0.0025048088
-0.6569607854 -2.0575945377 -0.0025903389
-0.6764066815 -2.0933611393 -0.0026392131
-0.6837096214 -2.0909872055 -0.0026392131
-0.6910045743 -2.0885877609 -0.0026392131
-0.6967076063 -2.0814204216 -0.0026331039
-0.7039690018 -2.0789759159 -0.0026331039
-0.7112216353 -2.0765058994 -0.0026331039
-0.7184655070 -2.0740106106 -0.0026331039
-0.7240516543 -2.0667698383 -0.0026269946
-0.7312614918 -2.0642297268 -0.0026269946
-0.7367805839 -2.0569562912 -0.0026208854
-0.7422574162 -2.0496690273 -0.0026147759
-0.7459774613 -2.0376722813 -0.0026025574
-0.7513545156 -2.0303654671 -0.0025964482
-0.7549415827 -2.0183613300 -0.0025842297
-0.7602183819 -2.0110349655 -0.0025781202
-0.7654531002 -2.0036971569 -0.0025720112
-0.7742392421 -2.0056788921 -0.0025781202
-0.7812358141 -2.0029640198 -0.0025781202
-0.7882225513 -2.0002248287 -0.0025781202
-0.7970455289 -2.0021080971 -0.0025842297
-0.8040292263 -1.9993138313 -0.0025842297
-0.8110031486 -1.9964951277 -0.0025842297
-0.8236495256 -2.0075340271 -0.0026025574
-0.8382927775 -2.0231294632 -0.0026269946
-0.8492024541 -2.0294189453 -0.0026392131
-0.8679356575 -2.0540864468 -0.0026758690
-0.8751003742 -2.0510442257 -0.0026758690
-0.8664584756 -2.0112278461 -0.0026269946
-0.8615303040 -1.9806711674 -0.0025903389
-0.8604128957 -1.9593328238 -0.0025659017
-0.8692694902 -1.9608902931 -0.0025720112
-0.8781473041 -1.9624096155 -0.0025781202
-0.8849921823 -1.9593322277 -0.0025781202
-0.8918260336 -1.9562312365 -0.0025781202
-0.8986492753 -1.9531061649 -0.0025781202
-0.9075633287 -1.9544942379 -0.0025842297
-0.9143801928 -1.9513143301 -0.0025842297
-0.9211861491 -1.9481105804 -0.0025842297
-0.9279806018 -1.9448832273 -0.0025842297
-0.9304336905 -1.9326182604 -0.0025720112
-0.9328122735 -1.9203602076 -0.0025597925
-0.9351167083 -1.9081090689 -0.0025475740
-0.9417716861 -1.9048331976 -0.0025475740
-0.9484149814 -1.9015341997 -0.0025475740
-0.9550469518 -1.8982119560 -0.0025475740
-0.9616670012 -1.8948667049 -0.0025475740
-0.9660007358 -1.8870456219 -0.0025414645
-0.9725819826 -1.8836621046 -0.0025414645
-0.9768456221 -1.8758192062 -0.0025353555
-0.9787454009 -1.8635406494 -0.0025231368
-0.9829077125 -1.8556923866 -0.0025170273
-0.9870272279 -1.8478379250 -0.0025109183
-0.9934715629 -1.8443812132 -0.0025109183
-0.9999035001 -1.8409022093 -0.0025109183
-1.0063234568 -1.8374005556 -0.0025109183
-1.0127309561 -1.8338767290 -0.0025109183
-1.0191261768 -1.8303304911 -0.0025109183
-1.0255091190 -1.8267618418 -0.0025109183
-1.0318794250 -1.8231711388 -0.0025109183
-1.0382373333 -1.8195580244 -0.0025109183
-1.0445822477 -1.8159228563 -0.0025109183
-1.0509146452 -1.8122655153 -0.0025109183
-1.0547146797 -1.8042671680 -0.0025048088
-1.0613205433 -1.8003894091 -0.0025048088
-1.0675984621 -1.7966737747 -0.0025048088
-1.0761154890 -1.7974157333 -0.0025109183
-1.0798032284 -1.7893652916 -0.0025048088
-1.8073444366 -2.9737856388 -0.0042031915
-1.0870499611 -1.7732532024 -0.0024925903
-1.0827357769 -1.7524243593 -0.0024681531
-1.0967637300 -1.7613742352 -0.0024864809
-1.0949432850 -1.7448228598 -0.0024681531
-1.0983585119 -1.7367618084 -0.0024620437
-1.8821594715 -2.9329500198 -0.0042093010
-1.9005246162 -2.9389624596 -0.0042276289
-1.9134992361 -2.9365010262 -0.0042337379
-1.9155114889 -2.9172606468 -0.0042154100
-1.9284396172 -2.9147279263 -0.0042215195
-2.6148033142 -3.9234340191 -0.0057121860
-2.7510590553 -4.0969710350 -0.0059809950
-2.7597422600 -4.0790586472 -0.0059687761
-3.4049072266 -4.9584207535 -0.0073006013
-3.4335691929 -4.9629554749 -0.0073250388
-3.4594454765 -4.9632482529 -0.0073433663
-3.4939823151 -4.9756994247 -0.0073800222
-3.5199890137 -4.9757204056 -0.0073983502
-3.5489385128 -4.9796934128 -0.0074227871
-3.5750441551 -4.9794621468 -0.0074411146
-3.6041197777 -4.9831614494 -0.0074655521
-3.6332647800 -4.9867186546 -0.0074899890
-3.6624791622 -4.9901328087 -0.0075144270
-3.6887891293 -4.9893822670 -0.0075327544
-3.7240951061 -5.0005407333 -0.0075694099
-3.7655217648 -5.0195150375 -0.0076182843
-3.7890465260 -5.0143208504 -0.0076305033
-3.4594893456 -4.4795861244 -0.0068668420
-3.4390523434 -4.4195122719 -0.0067935307
-3.3442106247 -4.2651910782 -0.0065735960
-3.3281030655 -4.2142419815 -0.0065125031
-3.3241255283 -4.1791143417 -0.0064758472
-3.3293185234 -4.1557760239 -0.0064575193
-3.3406667709 -4.1402363777 -0.0064514098
-3.3519465923 -4.1246690750 -0.0064453012
-3.3599925041 -4.1052026749 -0.0064330823
-3.3647646904 -4.0818719864 -0.0064147543
-3.3694145679 -4.0585575104 -0.0063964264
-3.4092094898 -4.0774664879 -0.0064453012
-3.4202022552 -4.0617156029 -0.0064391918
-3.4569873810 -4.0764532089 -0.0064819567
-3.4711954594 -4.0643615723 -0.0064819567
-3.5179531574 -4.0901384354 -0.0065430496
-3.5420269966 -4.0891737938 -0.0065613776
-4.1708502769 -4.7482061386 -0.0076732677
-4.1807751656 -4.7261266708 -0.0076610497
-4.2038965225 -4.7189731598 -0.0076732677
-4.2203440666 -4.7042694092 -0.0076732677
-4.2367391586 -4.6895089149 -0.0076732677
-4.5057401657 -4.9179468155 -0.0081009185
-4.5499958992 -4.9315953255 -0.0081497934
-4.5671834946 -4.9156818390 -0.0081497934
-4.6048049927 -4.9216217995 -0.0081864484
-4.6596622467 -4.9455585480 -0.0082536507
-4.6700158119 -4.9220075607 -0.0082414318
-4.6837148666 -4.9020605087 -0.0082353223
-4.3996725082 -4.5090947151 -0.0076488308
-4.4013719559 -4.4794402122 -0.0076243938
-4.4169812202 -4.4640493393 -0.0076243938
-4.4466500282 -4.4627747536 -0.0076488308
-4.4551200867 -4.4401650429 -0.0076366127
-4.8340549469 -4.7181482315 -0.0082047759
-4.8648533821 -4.7151675224 -0.0082292128
-4.8668766022 -4.6842846870 -0.0082047759
-4.8831977844 -4.6672677994 -0.0082047759
-4.9139623642 -4.6639661789 -0.0082292128
-4.9338498116 -4.6502156258 -0.0082353223
-4.9610018730 -4.6432166100 -0.0082536507
-4.9771795273 -4.6258716583 -0.0082536507
-4.9932961464 -4.6084699631 -0.0082536507
-5.0130372047 -4.5943913460 -0.0082597602
-5.0290436745 -4.5768651962 -0.0082597602
-5.0494952202 -4.5617542267 -0.0082658697
-5.0699028969 -4.5465550423 -0.0082719782
-5.0820088387 -4.5255041122 -0.0082658697
-5.0969882011 -4.5086264610 -0.0082658697
-5.1006450653 -4.4817967415 -0.0082475413
-5.1170377731 -4.4630708694 -0.0082475413
-5.1454768181 -4.4532089233 -0.0082658697
-5.1981229782 -4.4687266350 -0.0083269626
-5.2593140602 -4.4895215034 -0.0084002735
-5.2749528885 -4.4711360931 -0.0084002735
-5.2905278206 -4.4526958466 -0.0084002735
-5.2906961441 -4.4213714600 -0.0083758365
-5.2907090187 -4.3901014328 -0.0083513996
-5.3060011864 -4.3716068268 -0.0083513996
-5.3289661407 -4.3593926430 -0.0083636176
-5.3519115448 -4.3470721245 -0.0083758365
-5.3748359680 -4.3346419334 -0.0083880546
-5.3977384567 -4.3221068382 -0.0084002735
-5.4206180573 -4.3094639778 -0.0084124925
-5.4473991394 -4.2998132706 -0.0084308200
